ply
format ascii 1.0
element vertex 1191
property float x
property float y
property float z
property uchar red
property uchar green
property uchar blue
end_header
-0.033594 0.029337 0.222095 131 100 123
-0.036759 0.046124 0.211214 133 100 121
0.099314 -0.000480 0.152192 127 100 127
-0.216880 0.093641 -0.109697 139 100 115
0.042151 -0.011561 0.148743 126 100 128
0.149712 0.055367 -0.178161 134 100 120
-0.168018 -0.229364 -0.352873 98 100 156
-0.155271 0.068919 0.254744 136 100 118
0.210420 0.058898 -0.121692 135 100 119
-0.251583 0.058406 -0.206051 134 100 120
0.182175 0.037286 -0.166510 132 100 122
0.239379 -0.273526 0.197845 92 100 162
0.006420 0.007674 0.176314 128 100 126
0.221555 -0.000018 -0.182958 127 100 127
-0.192438 0.073377 0.236437 136 100 118
-0.088689 0.020176 0.254515 130 100 124
0.179933 0.023897 0.135702 130 100 124
-0.239896 0.012690 -0.195241 129 100 125
-0.256433 0.079016 0.063470 137 100 117
-0.076199 0.007022 -0.290058 128 100 126
-0.182374 0.018048 -0.177250 129 100 125
-0.206041 0.105564 0.063865 140 100 114
-0.044314 0.053325 0.143083 134 100 120
0.137719 0.010572 -0.255217 128 100 126
0.154593 0.086401 -0.190132 138 100 116
-0.105308 -0.046018 0.477057 121 100 133
0.270393 -0.010916 -0.084089 126 100 128
0.223171 0.059888 0.244471 135 100 119
-0.028659 0.027048 0.288485 130 100 124
-0.126848 0.014624 -0.123398 129 100 125
0.064400 0.016073 -0.178196 129 100 125
-0.266935 0.013130 0.071114 129 100 125
-0.097631 0.069915 -0.160502 136 100 118
-0.274357 0.617325 -0.305545 206 100 48
0.133194 0.074394 0.173915 136 100 118
-0.219013 0.005566 0.124059 128 100 126
0.182932 0.080658 -0.178316 137 100 117
-0.239404 0.044114 0.021860 133 100 121
0.086686 -0.001853 0.093227 127 100 127
-0.305767 0.008811 0.103328 128 100 126
0.042170 0.044664 -0.075806 133 100 121
-0.329450 0.394599 0.104026 177 100 77
0.198128 0.021736 -0.152026 130 100 124
0.290993 0.016486 0.153243 129 100 125
0.140785 -0.156616 -0.487271 107 100 147
-0.042327 0.052412 -0.053544 134 100 120
-0.143144 -0.030897 -0.405319 123 100 131
-0.113153 0.081633 0.085093 137 100 117
0.124350 0.078466 -0.099938 137 100 117
-0.271681 0.090075 0.020232 138 100 116
0.298025 0.027317 0.002099 130 100 124
0.125745 0.028215 -0.369097 131 100 123
0.044577 -0.013675 0.303719 125 100 129
-0.160054 0.063412 0.219310 135 100 119
-0.227841 0.016420 0.129607 129 100 125
-0.163994 0.053735 -0.160800 134 100 120
-0.080085 0.080935 0.276439 137 100 117
-0.248693 0.038960 -0.289205 132 100 122
-0.103049 0.002563 0.102700 127 100 127
0.025615 0.046808 -0.202395 133 100 121
-0.179069 0.035553 -0.280326 132 100 122
-0.175806 0.027669 0.212164 131 100 123
-0.342942 0.058546 -0.041572 134 100 120
-0.125555 0.040819 -0.085338 132 100 122
0.031204 -0.060159 0.221124 119 100 135
0.335532 -0.573231 -0.071666 54 100 200
0.257128 0.025710 -0.039180 130 100 124
0.132814 0.031361 0.117273 131 100 123
-0.248630 0.080670 -0.179705 137 100 117
-0.105858 0.020203 0.303111 130 100 124
-0.118849 -0.005820 0.198843 126 100 128
0.101973 0.083439 -0.207831 138 100 116
-0.277742 -0.692258 0.430800 39 100 215
0.162320 0.035092 -0.137909 131 100 123
0.239188 -0.087118 0.186084 116 100 138
0.116211 0.019202 0.284195 129 100 125
-0.218743 -0.049735 -0.211195 121 100 133
0.126823 0.010358 -0.155142 128 100 126
-0.236798 -0.018127 -0.153656 125 100 129
-0.256569 0.043478 -0.169258 133 100 121
0.171716 0.133482 -0.134757 144 100 110
0.233966 0.064044 0.038992 135 100 119
0.064058 0.030543 -0.446624 131 100 123
0.022255 0.065428 -0.256877 135 100 119
0.220054 0.089634 0.047672 138 100 116
-0.073201 -0.002855 -0.170996 127 100 127
0.004167 0.414498 -0.241615 180 100 74
-0.118866 -0.001437 0.083559 127 100 127
0.008597 0.123387 0.320930 143 100 111
-0.184312 0.061739 -0.101541 135 100 119
0.265710 0.037695 0.064118 132 100 122
-0.215862 -0.001008 -0.058641 127 100 127
0.190129 0.072859 -0.259943 136 100 118
-0.355537 -0.407825 0.154820 75 100 179
-0.240785 0.043050 0.051875 132 100 122
-0.003554 0.097743 -0.247473 139 100 115
0.151129 0.072253 0.001175 136 100 118
-0.367241 0.014738 0.131008 129 100 125
-0.104451 0.019777 0.111142 130 100 124
-0.209954 -0.258735 0.332363 94 100 160
-0.237905 0.009128 -0.108109 128 100 126
0.046518 0.034360 0.225919 131 100 123
0.063167 0.037786 0.147709 132 100 122
-0.240498 0.002081 -0.068768 127 100 127
-0.237452 0.043259 -0.122839 133 100 121
-0.252828 0.034644 0.097618 131 100 123
-0.195510 0.040810 -0.075790 132 100 122
-0.202291 0.078641 0.034830 137 100 117
-0.215395 0.007235 0.352866 128 100 126
0.056462 0.065426 0.161362 135 100 119
0.192959 0.037899 0.055592 132 100 122
-0.087982 0.074241 0.261177 136 100 118
0.162766 0.078111 0.048260 137 100 117
-0.252102 0.013202 -0.034470 129 100 125
-0.210852 0.071719 0.076034 136 100 118
-0.139105 0.042635 0.178733 132 100 122
-0.066720 0.087852 -0.295456 138 100 116
-0.318056 -0.041804 -0.058633 122 100 132
0.025342 0.054859 -0.214619 134 100 120
0.211955 0.008505 0.059444 128 100 126
0.269796 -0.190635 0.186603 103 100 151
0.453725 0.127000 -0.010834 143 100 111
0.143071 0.070757 0.012583 136 100 118
-0.115435 0.019605 0.079320 129 100 125
-0.266395 0.007542 -0.028099 128 100 126
-0.150535 0.041800 0.267961 132 100 122
-0.049596 0.030769 -0.117426 131 100 123
-0.129114 0.035501 0.189623 132 100 122
0.076688 0.106892 0.170316 141 100 113
0.018820 0.017405 0.145915 129 100 125
0.184020 0.049900 -0.116366 133 100 121
0.104822 0.025385 -0.091396 130 100 124
-0.144540 0.056205 0.097897 134 100 120
-0.234361 -0.023521 -0.144679 124 100 130
0.112605 0.042296 -0.029585 132 100 122
-0.010699 0.031193 -0.207664 131 100 123
0.140605 0.021092 -0.098470 130 100 124
-0.089048 0.043035 0.062334 132 100 122
0.047349 0.040762 -0.240023 132 100 122
-0.071219 0.035126 0.224001 131 100 123
-0.078855 0.016478 0.183455 129 100 125
-0.104073 -0.014542 -0.001667 125 100 129
-0.200983 -0.000755 0.105933 127 100 127
-0.157610 0.044092 -0.193207 133 100 121
0.031344 0.030919 -0.195387 131 100 123
0.111930 0.012980 0.214290 129 100 125
-0.027851 -0.009634 -0.075278 126 100 128
-0.088453 0.319280 -0.335924 168 100 86
0.245041 0.027998 0.236453 131 100 123
0.038943 -0.007428 0.246200 126 100 128
0.214884 0.050809 0.000051 133 100 121
-0.177202 0.043529 -0.129629 133 100 121
-0.181418 0.039995 -0.116626 132 100 122
-0.176842 0.023798 -0.032065 130 100 124
0.157616 0.028016 -0.019665 131 100 123
-0.010491 -0.049946 -0.322087 121 100 133
0.100995 0.052616 0.233668 134 100 120
-0.177623 0.066224 0.216429 135 100 119
-0.101299 0.007124 0.296539 128 100 126
-0.173354 0.077552 0.025730 137 100 117
0.023034 0.087517 -0.240960 138 100 116
0.163591 0.058101 0.100936 134 100 120
-0.112357 0.022394 -0.173820 130 100 124
0.167751 -0.382179 -0.510914 78 100 176
-0.293817 -0.060630 -0.074957 119 100 135
0.208600 0.043423 -0.042159 133 100 121
-0.007899 0.107124 -0.159687 141 100 113
-0.064852 0.025383 0.241814 130 100 124
-0.188586 0.062067 -0.030267 135 100 119
0.068823 0.002501 0.160432 127 100 127
0.253573 0.574811 -0.249504 200 100 54
-0.088491 0.063319 -0.157948 135 100 119
0.159139 -0.002332 0.187529 127 100 127
0.216885 0.021591 0.018532 130 100 124
0.205553 0.052131 -0.126175 134 100 120
-0.409461 0.061658 -0.155722 135 100 119
-0.152602 0.013214 0.264707 129 100 125
-0.151873 -0.154135 0.557679 107 100 147
-0.087992 0.040034 0.198431 132 100 122
-0.070563 0.087265 0.287189 138 100 116
0.336646 0.030264 -0.267350 131 100 123
-0.140551 0.043607 -0.058944 133 100 121
-0.056831 0.034796 0.117343 131 100 123
-0.144980 0.012374 0.204787 129 100 125
-0.190508 0.015024 -0.053642 129 100 125
0.052931 0.038401 -0.247132 132 100 122
-0.102803 0.068240 -0.009926 136 100 118
-0.054409 0.065882 -0.209086 135 100 119
0.144054 0.103770 -0.028913 140 100 114
-0.130226 0.040413 -0.158069 132 100 122
0.074848 0.028672 -0.102782 131 100 123
-0.361026 0.016201 0.058694 129 100 125
-0.012118 0.042637 0.119742 132 100 122
-0.207625 0.014677 -0.045247 129 100 125
-0.282821 -0.036962 0.085704 122 100 132
0.178879 0.020674 0.244011 130 100 124
-0.218223 0.019243 -0.236273 129 100 125
-0.147819 0.019260 0.274823 129 100 125
0.205067 0.036124 0.107212 132 100 122
0.016742 -0.762556 0.514478 30 100 224
0.123547 0.044524 -0.286418 133 100 121
-0.113673 0.066202 -0.251851 135 100 119
-0.139786 0.014873 -0.189045 129 100 125
-0.111013 0.059684 0.165537 135 100 119
-0.086974 -0.000730 0.029383 127 100 127
-0.155649 0.073125 -0.227660 136 100 118
0.183427 -0.012402 -0.151775 125 100 129
-0.033136 0.053398 -0.096217 134 100 120
-0.123054 0.030802 -0.127401 131 100 123
0.172122 0.026947 -0.151011 130 100 124
0.098913 0.022491 -0.192822 130 100 124
-0.053815 -0.007492 -0.074658 126 100 128
-0.264957 -0.076539 -0.152107 117 100 137
-0.210782 0.008199 -0.067464 128 100 126
0.114498 0.057012 0.154141 134 100 120
-0.121283 0.049642 -0.261974 133 100 121
0.148245 0.027963 -0.202410 131 100 123
-0.164703 0.038359 0.315948 132 100 122
0.226837 0.084939 0.008693 138 100 116
0.191694 0.035276 0.350812 131 100 123
-0.044864 0.330237 0.202624 169 100 85
0.124192 0.032645 0.174382 131 100 123
-0.144777 0.030711 -0.136885 131 100 123
0.180308 -0.010755 0.434907 126 100 128
0.011999 -0.044036 0.269682 121 100 133
0.266666 0.075566 -0.036604 137 100 117
-0.022880 0.075524 0.341781 137 100 117
0.202074 0.034880 0.147496 131 100 123
0.056585 0.014032 0.130731 129 100 125
0.022860 0.052978 -0.092939 134 100 120
-0.132541 -0.019055 -0.124497 125 100 129
0.046239 0.008024 0.240450 128 100 126
-0.132965 0.044356 -0.222885 133 100 121
0.033339 0.114159 0.208157 142 100 112
0.220565 0.019628 -0.033985 130 100 124
-0.080593 0.045175 0.148864 133 100 121
0.304817 0.025099 0.111990 130 100 124
0.185752 0.048284 0.008982 133 100 121
-0.097628 0.062416 -0.241940 135 100 119
0.143326 0.018323 -0.024590 129 100 125
0.265423 0.073815 -0.108352 136 100 118
-0.029251 0.073562 0.315308 136 100 118
-0.097424 0.021557 -0.123276 130 100 124
0.319304 0.047902 0.068171 133 100 121
-0.137080 0.052976 0.347573 134 100 120
-0.180609 -0.001480 -0.139590 127 100 127
-0.015940 0.079224 0.253003 137 100 117
0.204351 0.095786 -0.098673 139 100 115
-0.018280 0.011702 -0.223339 128 100 126
0.182189 0.078027 0.193897 137 100 117
-0.205641 0.047427 0.033795 133 100 121
0.029751 -0.000613 -0.223999 127 100 127
0.124057 0.046191 -0.142443 133 100 121
-0.081401 -0.661847 0.522882 43 100 211
-0.160046 0.679615 0.379769 214 100 40
-0.160907 0.047135 0.080004 133 100 121
0.230395 0.093699 0.318218 139 100 115
-0.130791 0.080367 -0.135544 137 100 117
-0.011701 0.040090 -0.134343 132 100 122
-0.188314 0.047758 0.117106 133 100 121
0.126561 0.071721 -0.353708 136 100 118
-0.003899 0.044128 0.172596 133 100 121
-0.223232 0.009101 0.084115 128 100 126
0.210548 0.040093 -0.156665 132 100 122
0.117705 0.069422 -0.076290 136 100 118
0.107851 0.023103 0.143524 130 100 124
-0.018332 0.097791 0.133954 139 100 115
0.072476 0.038943 -0.077298 132 100 122
0.212780 0.018803 -0.059505 129 100 125
-0.229092 0.077626 0.027189 137 100 117
0.109115 0.111001 -0.090450 141 100 113
-0.189386 0.019990 -0.074970 130 100 124
0.290376 -0.004079 0.010727 126 100 128
-0.138489 0.046625 0.159795 133 100 121
-0.219292 -0.000761 -0.174319 127 100 127
0.250218 -0.271290 -0.299266 92 100 162
0.262113 0.077286 0.012513 137 100 117
-0.135028 0.032385 0.162386 131 100 123
-0.043789 0.069056 0.078833 136 100 118
0.024874 0.090677 -0.311016 139 100 115
-0.196855 0.020074 -0.196862 130 100 124
-0.182078 -0.012889 0.205139 125 100 129
-0.013479 0.035510 0.103471 132 100 122
0.075362 0.061269 0.195553 135 100 119
-0.127448 0.030253 0.042566 131 100 123
-0.184254 0.068945 0.110683 136 100 118
-0.436883 -0.756398 -0.098394 31 100 223
0.019293 0.041139 -0.229982 132 100 122
-0.242734 0.014321 -0.041312 129 100 125
0.017514 0.005142 0.268257 128 100 126
0.153205 0.100142 -0.237587 140 100 114
-0.156303 0.098756 0.059413 140 100 114
0.151995 0.100378 -0.051036 140 100 114
0.064802 0.075532 -0.301677 137 100 117
-0.055528 0.042400 -0.194029 132 100 122
0.104058 0.030807 -0.234906 131 100 123
-0.065823 0.015498 -0.274997 129 100 125
-0.467153 -0.501924 -0.288808 63 100 191
0.249869 0.046528 0.035059 133 100 121
-0.145220 -0.010986 -0.016554 126 100 128
-0.179470 0.006151 -0.172082 128 100 126
0.142513 0.050648 -0.179645 133 100 121
-0.062557 0.029854 -0.169461 131 100 123
-0.289011 -0.046594 -0.073794 121 100 133
0.241428 0.070428 0.118880 136 100 118
-0.307507 -0.003495 -0.040030 127 100 127
0.112747 0.016298 0.219453 129 100 125
0.036125 0.069691 0.264361 136 100 118
-0.063589 -0.004899 0.260971 126 100 128
0.180048 0.024182 -0.117623 130 100 124
-0.166366 0.016523 -0.045176 129 100 125
0.102979 0.093935 -0.058571 139 100 115
0.129882 0.044337 0.049980 133 100 121
0.206395 -0.001561 -0.079610 127 100 127
-0.048792 0.057926 -0.121089 134 100 120
-0.244076 -0.011613 0.014135 126 100 128
-0.213733 0.084832 -0.093651 138 100 116
0.130671 0.000139 0.081631 127 100 127
0.205877 0.070190 0.169615 136 100 118
-0.133805 0.074083 0.279628 136 100 118
-0.188592 0.035377 0.044988 132 100 122
-0.153694 0.033625 0.259083 131 100 123
0.168107 0.054843 -0.041481 134 100 120
-0.157815 0.022328 0.001528 130 100 124
-0.017252 0.254755 0.380585 159 100 95
-0.199660 0.054730 -0.201439 134 100 120
0.140855 0.011170 -0.142495 128 100 126
0.212277 0.053640 -0.015948 134 100 120
0.009704 0.014543 -0.127668 129 100 125
-0.024736 0.044552 0.207318 133 100 121
0.151990 0.083805 -0.050049 138 100 116
-0.096913 -0.059305 -0.422760 119 100 135
-0.105950 -0.034526 -0.257017 123 100 131
0.087352 0.017370 0.152638 129 100 125
-0.282022 0.013244 -0.025778 129 100 125
-0.202449 -0.040276 -0.170541 122 100 132
-0.009911 0.034194 0.378879 131 100 123
0.122163 0.000584 0.194450 127 100 127
0.172868 0.045222 -0.122570 133 100 121
0.036770 -0.023104 0.254393 124 100 130
-0.036131 0.853451 0.271139 236 100 18
-0.012361 0.038009 -0.202405 132 100 122
0.072931 0.086114 -0.216205 138 100 116
-0.349203 -0.289218 -0.189771 90 100 164
0.098578 0.001894 0.096753 127 100 127
0.107905 0.012094 0.017888 129 100 125
-0.229337 -0.022140 -0.068600 124 100 130
-0.185268 0.028270 0.061993 131 100 123
0.110375 0.084060 0.093711 138 100 116
0.215703 -0.005398 -0.082706 126 100 128
-0.067019 0.048038 -0.163022 133 100 121
-0.160402 0.032329 -0.155933 131 100 123
0.056524 0.069553 0.161155 136 100 118
0.120669 0.033928 -0.198565 131 100 123
-0.180236 0.038206 0.249802 132 100 122
-0.035934 -0.033971 0.220418 123 100 131
0.037296 0.025001 0.236330 130 100 124
-0.438995 0.039612 -0.066700 132 100 122
-0.084970 0.005971 0.134623 128 100 126
0.188266 0.032239 0.080263 131 100 123
-0.276172 0.032722 0.182181 131 100 123
-0.012159 0.009594 0.050400 128 100 126
-0.157514 0.097827 0.116188 139 100 115
-0.093142 0.061984 -0.380106 135 100 119
0.067590 -0.014973 0.135413 125 100 129
0.198511 0.061454 -0.010158 135 100 119
0.116303 0.068434 0.213294 136 100 118
0.136981 0.024255 -0.176055 130 100 124
0.093744 0.054557 -0.122624 134 100 120
0.074813 0.009806 -0.109818 128 100 126
-0.131402 0.038054 -0.160591 132 100 122
-0.203378 0.004384 0.191146 128 100 126
-0.139148 0.021434 0.211560 130 100 124
0.102288 0.125401 -0.136908 143 100 111
0.143200 0.034199 0.051196 131 100 123
0.269162 -0.083781 -0.203981 116 100 138
-0.200292 0.065634 -0.149750 135 100 119
-0.028794 0.037324 -0.025147 132 100 122
-0.289533 0.016761 -0.045569 129 100 125
-0.196222 0.046643 0.083571 133 100 121
-0.070504 0.039075 -0.269604 132 100 122
0.107855 0.064963 -0.274851 135 100 119
0.262878 0.672714 0.313920 213 100 41
-0.201969 0.017985 0.025051 129 100 125
-0.280414 0.023552 0.068644 130 100 124
-0.125347 0.058960 -0.170491 135 100 119
0.040578 0.061401 -0.186326 135 100 119
-0.122250 0.076500 -0.122432 137 100 117
-0.108282 0.508583 0.230357 192 100 62
-0.270766 0.009250 -0.255205 128 100 126
-0.070198 0.030697 -0.152301 131 100 123
-0.214885 0.038251 0.109328 132 100 122
-0.281637 0.101222 -0.022492 140 100 114
0.056210 0.023402 0.237669 130 100 124
-0.212119 -0.007151 -0.247907 126 100 128
-0.203780 0.061206 0.042954 135 100 119
0.080306 0.027403 -0.146253 130 100 124
-0.175562 -0.073508 -0.323399 118 100 136
-0.244566 0.085210 0.063784 138 100 116
0.090399 0.101034 0.184847 140 100 114
0.173837 0.064060 -0.123937 135 100 119
0.244113 0.080530 -0.023108 137 100 117
0.053399 0.072459 0.004034 136 100 118
-0.040504 0.063012 0.194366 135 100 119
-0.094123 0.064573 -0.246101 135 100 119
0.391739 -0.101886 0.360366 114 100 140
-0.198531 0.014348 0.045138 129 100 125
0.083564 0.045128 0.248497 133 100 121
0.291451 -0.280527 0.321822 91 100 163
0.149116 0.069198 0.060396 136 100 118
-0.142991 0.051840 0.316075 134 100 120
0.292859 0.059635 0.159813 135 100 119
-0.259453 0.019386 -0.043625 129 100 125
-0.260167 -0.001919 0.319653 127 100 127
-0.090982 0.129896 0.202492 144 100 110
0.180900 0.060395 -0.205843 135 100 119
0.021520 0.041017 0.033116 132 100 122
-0.082857 0.063917 0.119650 135 100 119
-0.058677 0.023393 0.044509 130 100 124
-0.156357 0.053303 0.022034 134 100 120
-0.189055 0.021104 0.083809 130 100 124
-0.007734 -0.026201 -0.291435 124 100 130
0.024308 0.047245 -0.247769 133 100 121
-0.261940 0.402987 -0.044659 178 100 76
0.201293 0.112210 -0.121633 141 100 113
-0.120801 0.022858 0.149103 130 100 124
0.237241 0.068828 -0.415168 136 100 118
-0.288542 0.029996 0.101342 131 100 123
0.111543 0.031214 0.145595 131 100 123
0.103755 0.079574 -0.258885 137 100 117
-0.122680 0.020882 0.129812 130 100 124
0.236677 0.067215 0.292483 136 100 118
0.439816 -0.694654 -0.404946 38 100 216
-0.171182 0.038624 -0.152702 132 100 122
0.136491 0.036931 -0.181979 132 100 122
-0.234174 0.012882 -0.067833 129 100 125
-0.034685 0.045163 -0.347898 133 100 121
0.113445 0.104085 -0.200112 140 100 114
-0.087129 0.071614 0.181821 136 100 118
0.143299 0.366677 -0.415453 174 100 80
0.183614 0.138943 -0.328054 145 100 109
-0.065037 0.060468 -0.209659 135 100 119
-0.140081 0.025423 0.222350 130 100 124
-0.274722 0.026195 -0.018118 130 100 124
-0.202318 0.011855 0.010163 129 100 125
-0.097247 0.021657 0.161904 130 100 124
0.093393 0.028463 0.230172 131 100 123
-0.407351 0.028495 -0.008096 131 100 123
-0.070159 0.052972 -0.220721 134 100 120
0.318951 -0.764524 0.012626 30 100 224
0.269649 0.017583 -0.058516 129 100 125
-0.442607 0.258647 0.101512 160 100 94
0.148561 0.049702 -0.102485 133 100 121
-0.097823 0.026741 -0.177648 130 100 124
0.023962 0.063983 0.290319 135 100 119
0.133141 0.030029 0.135607 131 100 123
-0.252113 0.047832 0.250917 133 100 121
0.129771 0.011353 0.123484 128 100 126
0.043781 -0.033177 0.213398 123 100 131
0.348336 -0.064592 0.104958 119 100 135
-0.213261 0.014610 -0.051830 129 100 125
-0.317591 0.052691 0.026556 134 100 120
-0.098651 0.024093 0.268819 130 100 124
-0.192051 -0.010956 0.030608 126 100 128
-0.159562 0.067180 -0.121098 136 100 118
0.208705 0.008138 0.240251 128 100 126
0.195656 0.037062 0.085809 132 100 122
0.007456 0.073006 0.214807 136 100 118
-0.237294 -0.012551 -0.090654 125 100 129
-0.257299 0.003733 0.379768 127 100 127
-0.011585 0.037884 -0.345466 132 100 122
-0.276332 0.056315 -0.009121 134 100 120
-0.254793 0.040297 -0.052898 132 100 122
0.154828 -0.009891 -0.128728 126 100 128
-0.109176 0.042223 0.156668 132 100 122
-0.260232 -0.008233 0.027074 126 100 128
-0.177953 0.051879 -0.127092 134 100 120
-0.138642 -0.077494 0.248057 117 100 137
0.260691 0.026662 -0.050795 130 100 124
0.073694 0.008498 0.194124 128 100 126
0.138107 -0.048294 0.579543 121 100 133
-0.045308 0.051377 -0.277257 134 100 120
-0.085042 -0.002594 -0.079734 127 100 127
0.005203 0.004739 0.275186 128 100 126
-0.158804 0.077679 0.127429 137 100 117
0.106112 0.011294 0.184928 128 100 126
-0.266245 -0.015666 0.057425 125 100 129
0.309452 0.082157 -0.218538 137 100 117
0.199951 -0.028146 -0.296645 123 100 131
-0.234307 0.055433 -0.065509 134 100 120
-0.047875 0.039203 0.041582 132 100 122
0.120016 0.039954 0.168753 132 100 122
0.062272 -0.227904 -0.324036 98 100 156
-0.006086 0.021350 0.211680 130 100 124
0.027742 0.035797 -0.228781 132 100 122
-0.109047 0.048524 0.175749 133 100 121
0.236814 0.030994 0.057011 131 100 123
0.021789 0.035906 -0.212570 132 100 122
-0.173102 0.060725 0.013054 135 100 119
-0.019875 0.048960 0.044085 133 100 121
0.199265 0.063737 -0.066122 135 100 119
-0.097007 0.063537 0.040835 135 100 119
-0.028288 0.044760 0.198069 133 100 121
0.134452 0.067554 0.121281 136 100 118
0.065407 0.103748 -0.419987 140 100 114
0.035188 0.031725 0.175012 131 100 123
-0.029066 0.061932 -0.253743 135 100 119
0.128835 0.078294 -0.169005 137 100 117
-0.178685 0.023680 -0.046654 130 100 124
-0.230486 0.052457 0.058283 134 100 120
0.105841 0.028543 0.131319 131 100 123
0.332273 0.070519 0.001433 136 100 118
-0.249721 0.049655 -0.153124 133 100 121
-0.305156 0.015504 0.047794 129 100 125
0.052359 0.016219 -0.183108 129 100 125
0.157128 0.023613 -0.155438 130 100 124
0.428650 0.003651 0.110461 127 100 127
-0.217650 0.043149 0.012971 133 100 121
-0.058962 0.008240 0.193883 128 100 126
0.114069 0.029031 0.289948 131 100 123
-0.126606 0.072990 -0.247593 136 100 118
0.197622 -0.011173 0.108808 126 100 128
-0.170893 0.022385 -0.215080 130 100 124
-0.176370 0.007719 0.059964 128 100 126
-0.107596 0.064393 -0.181588 135 100 119
-0.247883 0.381686 0.329860 176 100 78
0.149464 0.026426 0.183046 130 100 124
0.398953 -0.453578 -0.178787 69 100 185
-0.265219 0.002419 -0.353795 127 100 127
0.118946 -0.089902 -0.304724 116 100 138
0.115115 0.015741 0.157695 129 100 125
-0.239813 0.002626 -0.147365 127 100 127
-0.175108 0.395949 0.163181 177 100 77
-0.194678 0.048275 0.025889 133 100 121
-0.222052 0.027800 0.203978 131 100 123
0.123588 0.000854 0.228916 127 100 127
0.095941 0.072710 -0.011142 136 100 118
-0.075730 0.015664 0.016973 129 100 125
-0.372493 0.084446 0.187520 138 100 116
0.199738 0.028561 0.177361 131 100 123
0.196937 -0.015409 0.132108 125 100 129
0.164181 0.035768 0.165756 132 100 122
-0.095403 0.029420 -0.249694 131 100 123
-0.375386 -0.097826 -0.134426 115 100 139
0.203622 -0.386762 -0.290239 78 100 176
-0.092196 0.010471 0.317829 128 100 126
-0.383430 -0.052763 -0.237254 120 100 134
0.167715 0.030722 -0.072165 131 100 123
-0.078681 -0.013898 -0.040776 125 100 129
-0.172617 0.033638 -0.166892 131 100 123
-0.083284 -0.000568 0.103033 127 100 127
-0.192062 -0.582439 0.347235 53 100 201
0.062183 0.032237 0.116132 131 100 123
-0.117107 0.050225 0.185438 133 100 121
0.060899 0.041555 -0.350004 132 100 122
-0.226821 0.034082 -0.107190 131 100 123
0.559677 -0.202174 -0.183675 101 100 153
0.429687 0.034479 -0.092359 131 100 123
0.059757 0.041553 0.211234 132 100 122
-0.205423 0.046911 -0.122581 133 100 121
-0.069640 0.088315 0.202336 138 100 116
0.150325 0.017736 -0.053809 129 100 125
-0.159837 0.064904 0.219419 135 100 119
0.214137 -0.003110 0.139331 127 100 127
0.217832 0.064255 0.078929 135 100 119
-0.072035 0.060992 0.228969 135 100 119
-0.136411 0.014231 -0.096081 129 100 125
-0.056532 0.077359 0.190710 137 100 117
0.004626 0.055620 -0.265767 134 100 120
0.066332 -0.305704 -0.507825 88 100 166
-0.244323 0.021642 -0.102068 130 100 124
-0.169281 0.031562 0.200457 131 100 123
0.255272 0.023738 0.016056 130 100 124
-0.030535 0.032739 0.098943 131 100 123
0.030275 0.036288 0.194306 132 100 122
0.033768 0.072314 -0.163594 136 100 118
-0.093057 0.049486 0.077286 133 100 121
0.051293 0.035422 0.274680 132 100 122
-0.201009 0.053709 0.053099 134 100 120
-0.237689 0.033583 -0.074946 131 100 123
-0.107332 0.076413 0.276344 137 100 117
-0.268952 0.027599 -0.076220 131 100 123
-0.257701 0.017919 -0.058571 129 100 125
0.039011 0.032546 0.173271 131 100 123
0.108159 0.008648 0.088749 128 100 126
0.366702 -0.009223 0.024588 126 100 128
0.005170 -0.000991 0.271471 127 100 127
-0.062249 0.039591 -0.172566 132 100 122
-0.037965 0.041754 -0.149326 132 100 122
-0.123531 0.014099 0.200385 129 100 125
0.027217 0.024785 0.258857 130 100 124
-0.037267 0.045646 0.039625 133 100 121
-0.003141 0.040309 -0.207279 132 100 122
-0.112004 0.061503 0.213156 135 100 119
0.140108 0.056191 0.078168 134 100 120
-0.178861 0.093520 0.055976 139 100 115
0.224865 0.005346 0.185015 128 100 126
0.142953 -0.006423 -0.015748 126 100 128
0.142094 0.056555 -0.000677 134 100 120
-0.145168 0.024074 0.212642 130 100 124
0.194555 0.095289 -0.007217 139 100 115
0.126980 0.023686 -0.111708 130 100 124
-0.218954 0.030943 -0.007173 131 100 123
0.116275 0.072401 0.232137 136 100 118
0.379869 0.152418 -0.090782 146 100 108
0.093778 0.039603 -0.098827 132 100 122
-0.064269 0.024376 0.212031 130 100 124
-0.148542 0.034579 -0.063846 131 100 123
-0.257965 0.074819 0.190060 137 100 117
0.046367 0.018139 0.268484 129 100 125
0.144361 0.106568 0.124453 141 100 113
0.047167 0.031145 0.141680 131 100 123
-0.124790 0.014902 0.042689 129 100 125
0.030784 0.050068 0.086148 133 100 121
-0.118783 0.009558 0.141079 128 100 126
-0.218162 0.090123 -0.209982 138 100 116
0.215947 0.044368 0.011790 133 100 121
0.151718 0.082562 0.255324 138 100 116
-0.090082 0.065963 -0.106899 135 100 119
0.379197 0.123492 0.121527 143 100 111
0.238376 0.021747 0.115121 130 100 124
-0.142835 0.060121 0.164043 135 100 119
0.041353 0.095734 0.223898 139 100 115
-0.110657 0.070419 0.068018 136 100 118
-0.231575 0.032260 -0.095368 131 100 123
0.093686 -0.038781 0.135373 122 100 132
-0.040112 0.029775 0.259535 131 100 123
0.134229 0.014766 0.237195 129 100 125
-0.206389 0.038801 -0.095210 132 100 122
-0.369055 0.577677 0.091019 201 100 53
0.205227 0.098148 0.139272 140 100 114
-0.227741 0.008994 0.090116 128 100 126
0.050253 0.033609 0.168951 131 100 123
-0.232809 0.061339 -0.022134 135 100 119
0.038792 0.084696 -0.251747 138 100 116
-0.012587 0.049171 0.161249 133 100 121
0.030266 0.017050 0.168776 129 100 125
0.201285 0.027614 -0.109637 131 100 123
0.098240 0.025641 -0.119204 130 100 124
0.115528 0.010886 -0.342026 128 100 126
0.290855 0.003256 0.095862 127 100 127
0.326147 0.079846 0.152540 137 100 117
0.191184 0.021841 0.077825 130 100 124
-0.188060 0.024766 0.520445 130 100 124
-0.088849 0.022009 -0.109240 130 100 124
-0.185013 0.057241 -0.070386 134 100 120
-0.001114 0.012777 -0.171296 129 100 125
0.233952 0.060517 -0.447704 135 100 119
-0.131449 0.018236 -0.203858 129 100 125
0.244858 0.029321 0.002706 131 100 123
-0.021895 0.036152 0.239293 132 100 122
-0.227003 0.040733 0.024706 132 100 122
-0.027653 0.037069 -0.417642 132 100 122
-0.139951 0.004772 0.105684 128 100 126
0.155149 0.073079 0.047450 136 100 118
0.008847 -0.004103 0.277829 126 100 128
0.497782 -0.500078 0.052369 63 100 191
-0.141167 0.005503 0.057688 128 100 126
0.074187 0.046992 -0.179008 133 100 121
-0.213500 0.050163 0.024631 133 100 121
-0.101386 0.074005 0.250931 136 100 118
-0.165987 0.039154 0.141927 132 100 122
-0.158273 0.074709 0.107394 137 100 117
0.227081 0.040506 -0.206501 132 100 122
0.039636 0.029489 -0.158805 131 100 123
-0.113772 0.044486 0.140344 133 100 121
-0.176210 -0.006848 -0.078538 126 100 128
-0.328047 -0.032081 -0.099870 123 100 131
0.031817 0.000424 -0.053134 127 100 127
-0.159048 0.044422 -0.135111 133 100 121
0.001052 0.059469 0.262069 135 100 119
-0.090733 0.089296 0.137502 138 100 116
-0.206822 0.006985 0.000776 128 100 126
0.071252 0.073001 -0.202622 136 100 118
0.212126 0.043398 0.058767 133 100 121
0.136382 -0.005017 0.297999 126 100 128
0.169586 0.296672 -0.083729 165 100 89
-0.161031 0.024551 0.395902 130 100 124
-0.180576 -0.020858 0.148717 124 100 130
-0.054007 0.044056 0.254681 133 100 121
-0.213284 0.015462 -0.084916 129 100 125
-0.206379 0.053935 -0.014744 134 100 120
0.094785 0.039746 0.118260 132 100 122
0.140192 0.016352 -0.194708 129 100 125
0.060639 0.099230 0.196513 140 100 114
0.240139 0.034905 -0.166845 131 100 123
0.102554 0.057216 0.225079 134 100 120
-0.332111 0.343522 -0.220606 171 100 83
0.147878 0.055646 -0.152932 134 100 120
0.254543 0.061641 -0.272940 135 100 119
-0.070774 0.038265 -0.184617 132 100 122
0.091994 -0.019609 0.187309 124 100 130
0.153521 0.015260 -0.009247 129 100 125
-0.015288 0.013198 0.235187 129 100 125
-0.157217 0.033774 0.115951 131 100 123
-0.181504 -0.650243 -0.466933 44 100 210
0.269371 0.053561 0.117662 134 100 120
0.331710 0.032586 0.157633 131 100 123
-0.073569 0.046400 0.073138 133 100 121
0.159791 0.076735 -0.108363 137 100 117
-0.070485 0.034267 -0.156910 131 100 123
0.175812 -0.020705 0.089306 124 100 130
-0.046979 0.030859 0.448836 131 100 123
0.009273 0.035344 -0.180460 132 100 122
-0.343287 -0.027917 0.045122 123 100 131
-0.292698 0.005059 -0.089298 128 100 126
-0.152746 0.018163 0.173926 129 100 125
-0.053667 0.060183 0.123591 135 100 119
-0.166641 0.003601 -0.207118 127 100 127
-0.039728 -0.023539 -0.177559 124 100 130
-0.105033 0.032859 0.166936 131 100 123
-0.024847 0.004159 -0.240135 128 100 126
-0.276027 0.042817 0.049823 132 100 122
-0.384021 -0.008430 -0.143537 126 100 128
0.203458 0.022126 -0.111520 130 100 124
0.168534 0.078133 -0.052212 137 100 117
0.099813 -0.008191 -0.160238 126 100 128
-0.210271 0.004392 0.139168 128 100 126
-0.185347 0.092052 -0.122176 139 100 115
-0.304202 0.025802 -0.125373 130 100 124
0.151519 0.050413 -0.022346 133 100 121
-0.057336 0.024289 -0.244178 130 100 124
0.248014 0.049480 0.005724 133 100 121
0.045716 0.038116 0.163698 132 100 122
-0.256509 0.012595 0.047821 129 100 125
-0.073726 0.101831 -0.088016 140 100 114
0.235654 0.054808 -0.040819 134 100 120
-0.038403 -0.024134 -0.186031 124 100 130
0.101149 0.065966 -0.175500 135 100 119
0.166330 -0.047832 -0.567819 121 100 133
-0.177065 0.012767 0.054275 129 100 125
-0.212902 0.075407 0.083694 137 100 117
-0.195874 0.069636 -0.031489 136 100 118
-0.240559 0.010373 -0.042383 128 100 126
0.066086 0.045836 -0.192579 133 100 121
0.122330 -0.553346 -0.326196 56 100 198
-0.070790 0.036629 -0.139349 132 100 122
0.210356 0.061194 0.065068 135 100 119
-0.291179 0.020967 0.039515 130 100 124
0.213692 0.056076 -0.099753 134 100 120
-0.139191 0.045906 -0.215131 133 100 121
-0.135595 0.101864 0.208791 140 100 114
-0.241142 0.093671 -0.044965 139 100 115
-0.138204 0.074463 0.018171 136 100 118
0.149179 0.036437 -0.238795 132 100 122
-0.218612 0.036054 0.081686 132 100 122
-0.153868 -0.392735 0.532566 77 100 177
0.114389 0.054794 0.150976 134 100 120
0.154192 0.062531 0.210399 135 100 119
-0.233589 -0.019522 0.372843 125 100 129
0.138373 0.022583 -0.196055 130 100 124
0.060833 0.017354 -0.250803 129 100 125
-0.144827 0.046899 0.213468 133 100 121
0.083452 -0.007209 -0.098242 126 100 128
-0.242501 0.047913 0.066401 133 100 121
0.163979 0.082987 -0.080848 138 100 116
0.097119 -0.001682 -0.297125 127 100 127
0.146923 0.110286 -0.104844 141 100 113
-0.082016 0.004948 -0.006887 128 100 126
-0.073578 0.104396 -0.216598 140 100 114
-0.081496 0.015780 -0.201877 129 100 125
0.077481 0.055044 -0.239134 134 100 120
0.218282 0.054593 0.089870 134 100 120
-0.033860 -0.188255 -0.472576 103 100 151
0.234538 0.078836 0.184214 137 100 117
-0.198503 -0.019398 0.022657 125 100 129
-0.169777 0.095176 -0.165098 139 100 115
-0.256206 0.005920 0.141856 128 100 126
-0.220718 0.051088 -0.168823 134 100 120
-0.290367 0.097580 -0.069850 139 100 115
0.242008 -0.002733 -0.098165 127 100 127
0.112904 0.033276 -0.220838 131 100 123
-0.134030 0.074538 0.014415 137 100 117
-0.065701 0.056201 -0.228077 134 100 120
-0.105943 -0.011260 -0.138566 126 100 128
-0.085576 0.049746 -0.169204 133 100 121
0.250036 -0.018421 -0.147335 125 100 129
-0.325340 0.067687 -0.016177 136 100 118
-0.038134 0.115217 -0.211945 142 100 112
-0.280578 -0.005714 0.018074 126 100 128
0.197797 0.040288 0.191828 132 100 122
-0.135507 0.059381 0.176217 135 100 119
-0.025622 0.063338 -0.240733 135 100 119
-0.016123 0.030727 -0.160750 131 100 123
0.208041 0.047595 0.143705 133 100 121
0.051978 -0.005870 0.232988 126 100 128
-0.146603 0.035600 -0.229104 132 100 122
0.003771 0.014699 -0.174692 129 100 125
0.196529 0.039998 -0.044956 132 100 122
-0.197486 0.033517 -0.091976 131 100 123
-0.104162 0.048580 0.122863 133 100 121
-0.151603 0.033568 -0.132411 131 100 123
0.195114 0.059225 -0.108129 135 100 119
0.162766 -0.057256 -0.022917 120 100 134
0.180869 -0.003565 -0.104017 127 100 127
-0.218098 0.014471 -0.049561 129 100 125
-0.086326 0.028012 0.161863 131 100 123
0.188266 0.054193 0.081858 134 100 120
0.175264 -0.002689 -0.068637 127 100 127
0.099751 0.088710 -0.056203 138 100 116
-0.095060 0.069010 0.147522 136 100 118
-0.050150 0.057355 -0.142549 134 100 120
-0.289555 0.000668 0.007093 127 100 127
0.146219 0.042317 -0.185018 132 100 122
0.018151 0.039453 0.227511 132 100 122
0.133017 0.079514 0.192165 137 100 117
0.135009 0.119593 -0.220892 142 100 112
-0.275873 0.021965 -0.022221 130 100 124
-0.126230 0.002628 -0.117200 127 100 127
0.234859 0.765871 0.159534 225 100 29
0.063268 -0.010464 -0.146117 126 100 128
0.149791 0.089621 0.257462 138 100 116
0.097618 0.012624 0.176991 129 100 125
0.057615 -0.003379 -0.199375 127 100 127
0.172588 0.067348 0.213771 136 100 118
-0.061619 -0.754116 0.380853 31 100 223
0.141497 0.020900 0.042821 130 100 124
-0.290871 -0.013811 -0.132221 125 100 129
-0.482456 0.012793 -0.111969 129 100 125
0.201965 0.055552 -0.077598 134 100 120
-0.187904 -0.014017 0.112677 125 100 129
-0.279583 0.164793 0.418866 148 100 106
-0.015765 0.004599 -0.111253 128 100 126
-0.105887 0.030651 -0.365221 131 100 123
0.193757 -0.015674 0.172376 125 100 129
0.033974 0.085750 -0.214860 138 100 116
0.183489 0.263121 0.252037 161 100 93
0.207591 0.040699 -0.016824 132 100 122
-0.298223 -0.006562 -0.079576 126 100 128
0.158268 0.771055 0.280191 225 100 29
0.241971 0.036432 0.189768 132 100 122
0.235344 -0.021014 0.057324 124 100 130
0.285156 0.041771 -0.004935 132 100 122
0.012002 0.085840 -0.214173 138 100 116
0.417337 -0.683839 0.255354 40 100 214
-0.134507 0.084284 -0.030767 138 100 116
-0.207099 0.063897 0.071101 135 100 119
-0.246941 0.027080 -0.108704 130 100 124
-0.000047 0.068971 0.152845 136 100 118
0.039544 0.043692 -0.224817 133 100 121
0.021472 0.041450 -0.317254 132 100 122
-0.283586 0.040343 0.080776 132 100 122
0.066083 0.038409 0.225377 132 100 122
0.068036 0.052717 -0.090455 134 100 120
-0.076960 0.013882 0.216514 129 100 125
0.099848 0.074595 0.028011 137 100 117
-0.079376 0.055694 0.088368 134 100 120
-0.277385 0.014006 -0.116491 129 100 125
-0.098912 0.075214 -0.212660 137 100 117
0.156269 0.017387 0.041952 129 100 125
0.287411 0.059957 0.006483 135 100 119
-0.242942 0.018334 0.139383 129 100 125
-0.239518 0.031591 0.193126 131 100 123
-0.003118 -0.010325 0.272307 126 100 128
-0.174185 0.020592 -0.198910 130 100 124
-0.220876 0.019760 -0.190460 130 100 124
0.183759 0.053950 -0.077087 134 100 120
0.105224 0.043978 0.175201 133 100 121
-0.131603 0.021153 0.181468 130 100 124
-0.030606 0.082112 0.188849 137 100 117
-0.237415 0.070281 0.201970 136 100 118
0.241377 0.062363 -0.029187 135 100 119
-0.231116 0.021849 0.091205 130 100 124
0.091024 -0.443365 -0.331179 70 100 184
-0.201952 0.019196 -0.117336 129 100 125
-0.022558 0.015466 0.292143 129 100 125
0.268132 0.075623 -0.142858 137 100 117
0.294707 0.028793 -0.240796 131 100 123
-0.188063 0.091657 -0.076949 139 100 115
0.259013 0.086889 -0.122794 138 100 116
0.078283 0.000452 0.202446 127 100 127
-0.062071 0.046670 0.242832 133 100 121
-0.147390 0.038691 -0.188353 132 100 122
0.348535 0.013797 -0.067279 129 100 125
0.180198 -0.001520 -0.265061 127 100 127
0.245598 -0.488712 0.279552 65 100 189
-0.137780 0.057366 0.248618 134 100 120
-0.226300 -0.001040 0.057154 127 100 127
0.042119 0.077775 -0.145928 137 100 117
-0.237758 0.021564 0.169168 130 100 124
0.242224 0.035314 0.085626 132 100 122
-0.103470 0.003624 0.151691 127 100 127
-0.014917 -0.415712 -0.566953 74 100 180
-0.447562 -0.115200 -0.313024 112 100 142
-0.103286 -0.014985 0.219183 125 100 129
-0.056454 -0.014657 0.156483 125 100 129
-0.022277 0.020636 -0.244794 130 100 124
0.193179 0.064089 -0.096820 135 100 119
-0.363190 -0.117323 0.166639 112 100 142
0.139353 0.053463 -0.195188 134 100 120
-0.211438 0.083592 -0.089975 138 100 116
-0.327251 0.021974 0.128323 130 100 124
-0.063611 -0.005013 -0.207982 126 100 128
-0.226097 0.011331 0.092450 128 100 126
-0.221844 0.049338 -0.061130 133 100 121
-0.237042 0.055887 -0.118002 134 100 120
0.122511 -0.046874 0.149977 121 100 133
0.183558 -0.007456 0.182820 126 100 128
0.114363 0.023676 -0.222043 130 100 124
0.084142 0.054596 -0.102464 134 100 120
0.076281 -0.042905 0.165030 122 100 132
-0.043316 0.049800 -0.182349 133 100 121
-0.113690 0.103086 0.516325 140 100 114
0.178765 0.011860 -0.099748 129 100 125
-0.211394 0.016892 0.097051 129 100 125
-0.015834 0.014145 0.159313 129 100 125
-0.070545 0.004682 -0.236534 128 100 126
0.108146 0.042848 0.040768 132 100 122
-0.321785 -0.703571 -0.258644 37 100 217
0.023559 0.028343 0.114343 131 100 123
-0.121877 0.024293 0.240887 130 100 124
0.118800 0.044186 -0.222322 133 100 121
-0.173423 0.018984 -0.097310 129 100 125
-0.270069 -0.002167 0.022329 127 100 127
0.173767 0.027935 0.029095 131 100 123
-0.004544 0.085399 -0.250191 138 100 116
0.089153 0.014561 -0.213443 129 100 125
0.174197 0.082490 -0.102956 138 100 116
0.048024 0.108928 0.223544 141 100 113
0.053116 -0.017267 0.175602 125 100 129
0.200085 0.060072 -0.066994 135 100 119
-0.056740 0.047446 -0.241597 133 100 121
-0.436556 -0.173743 -0.043557 105 100 149
0.255054 0.071943 0.041857 136 100 118
0.016380 0.009392 0.231699 128 100 126
0.235654 0.059651 -0.035281 135 100 119
-0.019158 0.102914 0.207116 140 100 114
-0.097499 0.066389 0.219259 135 100 119
0.009513 0.055554 -0.204612 134 100 120
0.177134 0.016865 0.223852 129 100 125
-0.029102 0.041830 -0.223153 132 100 122
0.032179 0.026100 -0.206451 130 100 124
0.148583 0.066497 0.142022 135 100 119
0.012143 0.046939 -0.200494 133 100 121
0.007070 0.760522 -0.357102 224 100 30
0.342855 0.082864 -0.086740 138 100 116
-0.209531 0.056035 -0.151821 134 100 120
-0.045137 0.052249 0.339110 134 100 120
0.114519 -0.007151 0.204089 126 100 128
-0.089803 0.051853 0.067591 134 100 120
0.063645 0.030352 0.251680 131 100 123
-0.047810 0.043691 0.113818 133 100 121
0.194395 -0.025063 0.167644 124 100 130
0.092568 0.032462 0.437102 131 100 123
0.318338 -0.450273 0.231505 70 100 184
-0.154088 0.072498 -0.145319 136 100 118
0.211924 0.048622 0.161234 133 100 121
0.370708 -0.094706 -0.276448 115 100 139
0.208119 -0.023077 -0.113274 124 100 130
0.090642 0.000778 0.301355 127 100 127
0.170796 0.016864 -0.093905 129 100 125
0.225780 0.029301 -0.201062 131 100 123
-0.216532 0.044436 -0.121614 133 100 121
-0.060837 0.006052 -0.191539 128 100 126
-0.197243 -0.049247 -0.182862 121 100 133
-0.075051 0.009450 -0.267534 128 100 126
-0.147949 0.035322 -0.292686 132 100 122
0.112494 0.027446 -0.114154 130 100 124
0.184846 0.059419 0.234185 135 100 119
-0.061160 0.030980 0.179539 131 100 123
-0.127894 0.062387 0.100003 135 100 119
0.245365 0.032318 0.154023 131 100 123
0.221414 0.059093 0.103786 135 100 119
-0.009481 0.017224 0.246106 129 100 125
0.339785 0.200319 0.202517 153 100 101
0.208222 -0.007111 -0.098535 126 100 128
0.017673 0.052241 0.078758 134 100 120
0.184466 0.035064 -0.078528 131 100 123
-0.467003 -0.221696 0.212931 99 100 155
0.151953 0.090477 0.051682 139 100 115
-0.239284 0.004231 0.217243 128 100 126
0.087898 -0.013848 -0.372294 125 100 129
0.085708 -0.066721 0.179436 118 100 136
0.219293 0.020257 0.035937 130 100 124
0.050409 0.060384 0.146366 135 100 119
-0.167195 0.008626 0.222124 128 100 126
-0.230748 0.013367 0.007344 129 100 125
0.280696 0.029236 -0.039107 131 100 123
0.220363 0.078274 -0.301909 137 100 117
-0.117134 0.055837 0.144553 134 100 120
0.429349 0.099814 -0.220038 140 100 114
0.042614 0.038252 -0.167196 132 100 122
0.118602 0.110238 -0.197957 141 100 113
0.136285 0.083254 -0.181283 138 100 116
-0.275194 0.055695 0.002262 134 100 120
0.094750 0.039414 -0.291239 132 100 122
-0.156444 0.048234 -0.083414 133 100 121
-0.029509 0.038097 0.270403 132 100 122
-0.174236 0.069843 0.106094 136 100 118
-0.119883 0.010411 -0.157092 128 100 126
0.115065 0.050039 0.206473 133 100 121
-0.062603 0.088662 -0.068648 138 100 116
0.066503 0.081728 0.276271 137 100 117
-0.224479 -0.005120 0.007659 126 100 128
0.255044 0.019175 0.124116 129 100 125
-0.180306 0.026149 0.021201 130 100 124
0.009710 0.081278 -0.286915 137 100 117
0.248226 0.038212 0.156242 132 100 122
-0.088355 0.053806 -0.135851 134 100 120
-0.045689 0.034682 0.157434 131 100 123
-0.213243 0.065987 0.077356 135 100 119
0.139502 0.077585 -0.072563 137 100 117
0.362410 -0.459247 -0.370034 68 100 186
0.171295 0.068619 0.231439 136 100 118
-0.152239 0.289581 0.294592 164 100 90
-0.065683 0.053464 -0.080210 134 100 120
-0.174894 0.047482 0.072551 133 100 121
0.057015 -0.018071 0.241448 125 100 129
-0.117127 -0.001507 0.097438 127 100 127
0.161281 0.060754 -0.019641 135 100 119
-0.066106 0.035630 -0.099517 132 100 122
-0.142897 -0.001826 -0.392616 127 100 127
0.262032 0.111310 0.382477 141 100 113
0.135314 0.015275 -0.237895 129 100 125
0.003998 0.059169 0.205650 135 100 119
-0.217505 0.046664 -0.010181 133 100 121
-0.332732 -0.313166 0.441115 87 100 167
0.232752 0.058604 -0.073317 134 100 120
0.204181 -0.015033 -0.007076 125 100 129
-0.123221 0.045084 -0.187987 133 100 121
0.087383 0.023291 -0.007724 130 100 124
0.103855 0.000324 -0.247970 127 100 127
-0.194583 0.059583 0.182545 135 100 119
-0.109131 0.059429 0.004082 135 100 119
-0.026763 -0.023167 -0.281136 124 100 130
-0.265076 0.053594 0.024627 134 100 120
-0.229930 0.020160 0.015316 130 100 124
-0.116433 0.048409 0.178385 133 100 121
0.016710 0.027503 -0.155862 131 100 123
0.145309 0.046855 0.153693 133 100 121
-0.208755 0.012405 -0.028186 129 100 125
-0.187187 0.032014 0.031864 131 100 123
-0.122806 0.020568 0.010256 130 100 124
-0.070926 0.023669 0.137090 130 100 124
-0.190638 0.056447 -0.217353 134 100 120
-0.161178 0.054020 -0.049114 134 100 120
0.211238 0.424850 0.219470 181 100 73
-0.280341 0.078799 -0.059037 137 100 117
0.083264 0.065491 -0.257295 135 100 119
-0.459782 0.030513 0.086883 131 100 123
0.090849 -0.115087 -0.390063 112 100 142
-0.354914 -0.420244 -0.007040 73 100 181
0.076113 0.009826 0.193936 128 100 126
0.033829 0.030895 -0.152095 131 100 123
-0.005713 0.020879 0.394685 130 100 124
0.073280 0.027566 -0.224439 131 100 123
-0.021990 0.095189 -0.225309 139 100 115
-0.149020 0.030672 0.092078 131 100 123
-0.014895 0.049020 0.179208 133 100 121
0.266099 0.015714 -0.020328 129 100 125
-0.114359 -0.480847 -0.439958 66 100 188
0.160410 -0.005986 0.041006 126 100 128
-0.107274 -0.013930 0.136801 125 100 129
0.118387 0.051034 -0.172054 134 100 120
0.151390 0.013038 -0.006551 129 100 125
0.088544 0.088148 -0.251072 138 100 116
-0.128121 0.031545 0.003332 131 100 123
0.090427 -0.024057 0.269463 124 100 130
0.140799 -0.012301 -0.166291 125 100 129
0.130708 0.003541 0.156921 127 100 127
0.107861 0.024252 -0.322629 130 100 124
-0.270114 0.097536 -0.087356 139 100 115
0.096477 0.071764 -0.211704 136 100 118
-0.236647 0.054441 -0.116869 134 100 120
-0.213838 0.033228 0.122178 131 100 123
-0.062257 0.087426 -0.232440 138 100 116
-0.165069 0.049214 0.123394 133 100 121
-0.000757 0.059857 -0.018901 135 100 119
-0.149262 0.011398 0.198903 128 100 126
-0.188802 0.058908 -0.178415 135 100 119
-0.111647 -0.003236 0.134636 127 100 127
-0.154211 0.039867 -0.121274 132 100 122
-0.105725 0.036726 0.184520 132 100 122
0.165569 0.081949 -0.141072 137 100 117
-0.137192 0.035156 0.029265 131 100 123
-0.227848 0.085439 -0.136623 138 100 116
-0.402963 0.037444 0.025899 132 100 122
-0.169793 0.009039 -0.126716 128 100 126
0.226304 -0.246256 0.346064 96 100 158
-0.215904 0.035041 -0.026252 131 100 123
-0.149523 -0.022248 -0.023696 124 100 130
0.126402 -0.000468 -0.088339 127 100 127
0.105150 0.463395 -0.404074 186 100 68
-0.227140 0.028400 -0.117525 131 100 123
-0.237046 0.043247 -0.063876 133 100 121
0.121006 0.003567 -0.105703 127 100 127
-0.137874 0.016326 -0.250737 129 100 125
-0.084001 0.089406 0.232155 138 100 116
-0.168053 -0.005492 -0.018516 126 100 128
0.244528 0.088644 0.162446 138 100 116
-0.200932 0.044571 0.093313 133 100 121
0.004075 0.041862 0.225235 132 100 122
-0.026210 0.056508 0.236750 134 100 120
-0.018179 -0.051512 -0.046964 120 100 134
-0.338781 -0.013866 -0.069403 125 100 129
0.098751 0.004506 0.270161 128 100 126
0.251080 0.071837 -0.019723 136 100 118
-0.156507 0.030173 -0.012173 131 100 123
0.185213 0.081521 -0.008181 137 100 117
-0.254731 0.008784 -0.079555 128 100 126
0.015899 0.046538 0.204714 133 100 121
-0.227543 0.088273 -0.145965 138 100 116
-0.210734 0.024049 -0.029598 130 100 124
-0.112293 0.063566 -0.060649 135 100 119
0.058443 0.029128 -0.139528 131 100 123
-0.234151 0.794490 -0.161398 228 100 26
0.028869 0.075910 0.098452 137 100 117
-0.102048 -0.071881 0.026678 118 100 136
0.112849 0.035220 -0.160537 131 100 123
-0.178595 0.017473 -0.135162 129 100 125
-0.129819 0.002674 0.210310 127 100 127
-0.153902 -0.014326 -0.135218 125 100 129
-0.205741 0.074280 -0.195329 136 100 118
0.126475 0.032441 0.155017 131 100 123
-0.097598 0.032164 0.228488 131 100 123
-0.340945 0.011869 0.121555 129 100 125
-0.204053 0.068792 -0.003856 136 100 118
0.073397 0.004968 -0.182956 128 100 126
-0.148320 0.052542 -0.071912 134 100 120
0.208710 0.007739 0.144840 128 100 126
0.195334 0.027582 0.094889 131 100 123
-0.300655 0.095589 -0.115322 139 100 115
0.198231 0.049421 -0.042994 133 100 121
0.149947 0.086447 0.130512 138 100 116
0.041355 0.020439 0.034250 130 100 124
0.208892 0.017638 0.090504 129 100 125
-0.194515 0.019593 -0.159550 129 100 125
0.083172 0.038847 -0.217702 132 100 122
-0.189094 0.042081 -0.071584 132 100 122
-0.161354 0.037373 0.009617 132 100 122
-0.095637 0.013511 -0.235119 129 100 125
0.047976 0.067789 -0.115111 136 100 118
-0.093823 0.082151 -0.031184 137 100 117
-0.075054 0.017079 0.240333 129 100 125
0.435376 -0.392608 0.092100 77 100 177
0.079568 0.013540 0.149468 129 100 125
-0.199526 -0.000330 0.132953 127 100 127
-0.265228 0.090109 -0.207971 138 100 116
-0.048333 0.064233 -0.240061 135 100 119
0.108713 0.028784 0.071335 131 100 123
-0.081564 0.047654 -0.220599 133 100 121
0.098265 0.036204 0.263698 132 100 122
0.067116 -0.364239 0.548227 81 100 173
0.183951 0.030438 0.098983 131 100 123
-0.171742 0.018053 0.313477 129 100 125
-0.056051 -0.022228 -0.444692 124 100 130
0.088841 0.099184 0.145885 140 100 114
-0.250740 0.083289 0.077295 138 100 116
-0.473089 -0.016103 0.129444 125 100 129
0.338743 -0.462908 0.042701 68 100 186
0.121080 0.054607 0.196292 134 100 120
-0.093192 -0.037819 0.079010 122 100 132
0.075166 0.052579 -0.225445 134 100 120
-0.027702 -0.008733 0.299822 126 100 128
-0.174210 0.184376 -0.382269 151 100 103
-0.166872 -0.006760 -0.224951 126 100 128
0.114276 0.032459 0.075135 131 100 123
0.116036 0.027260 0.161947 130 100 124
-0.037455 0.022724 -0.232939 130 100 124
0.414268 -0.547125 0.324353 57 100 197
-0.204172 0.016348 0.012652 129 100 125
0.246783 0.028485 0.186236 131 100 123
-0.006108 0.051777 -0.223934 134 100 120
0.234257 0.062550 0.042575 135 100 119
-0.051866 0.021444 0.167514 130 100 124
-0.159104 0.046228 -0.180824 133 100 121
-0.232371 0.005997 -0.073474 128 100 126
0.127908 0.061504 0.115175 135 100 119
-0.138206 -0.073180 -0.192380 118 100 136
-0.021680 0.046978 -0.141653 133 100 121
0.471837 -0.029149 -0.062982 123 100 131
-0.162781 -0.006548 -0.047441 126 100 128
-0.142139 0.025498 0.140297 130 100 124
-0.052674 0.024056 0.033966 130 100 124
-0.096510 0.087483 -0.173984 138 100 116
0.270007 0.051908 0.029069 134 100 120
0.090430 0.050998 -0.244041 134 100 120
-0.114290 0.037026 -0.191162 132 100 122
-0.166539 -0.016766 -0.162514 125 100 129
-0.227789 0.034379 0.162718 131 100 123
-0.225845 0.037399 0.075791 132 100 122
-0.055659 0.022255 0.257837 130 100 124
-0.151097 0.098845 -0.288441 140 100 114
-0.068129 0.080479 -0.136416 137 100 117
0.087884 0.089430 -0.186494 138 100 116
-0.263409 -0.004505 0.115216 126 100 128
-0.208320 0.029247 -0.016083 131 100 123
0.141643 -0.002719 0.170768 127 100 127
-0.206498 0.019916 0.135217 130 100 124
-0.133394 0.077069 0.124770 137 100 117
-0.220033 -0.005691 -0.143439 126 100 128
