ply
format ascii 1.0
element vertex 1192
property float x
property float y
property float z
property uchar red
property uchar green
property uchar blue
end_header
-0.240088 0.049674 0.016541 133 100 121
0.244680 0.118594 -0.218723 142 100 112
0.151253 0.074159 0.088533 136 100 118
0.036887 0.033231 -0.223028 131 100 123
0.340270 0.096624 -0.051098 139 100 115
0.123763 0.099057 0.186218 140 100 114
-0.175348 0.030379 -0.062594 131 100 123
-0.036207 0.027797 -0.225619 131 100 123
-0.114367 0.071732 -0.006801 136 100 118
-0.228029 0.093261 -0.088615 139 100 115
0.361838 -0.131884 0.324872 110 100 144
0.036867 0.075482 0.195098 137 100 117
-0.064238 0.045905 0.186634 133 100 121
0.144429 0.067923 -0.078779 136 100 118
-0.214079 -0.006521 -0.096815 126 100 128
-0.379490 -0.210116 0.255908 100 100 154
0.017598 0.089784 0.234346 138 100 116
0.228744 -0.004704 0.011038 126 100 128
0.209765 0.070678 -0.158035 136 100 118
-0.233242 0.009081 0.070236 128 100 126
-0.319350 0.071773 0.043040 136 100 118
-0.273687 0.065482 0.233201 135 100 119
-0.102480 0.006823 0.167618 128 100 126
-0.286334 0.065423 -0.047835 135 100 119
0.144020 0.018913 0.265423 129 100 125
0.108928 0.061747 -0.231022 135 100 119
0.019301 0.028058 0.171251 131 100 123
-0.043689 -0.027210 0.117883 124 100 130
-0.016445 0.036126 0.140359 132 100 122
0.265892 0.375819 0.263206 175 100 79
0.219507 0.049872 -0.167398 133 100 121
-0.115535 0.050326 -0.005377 133 100 121
-0.243956 -0.006020 -0.011783 126 100 128
0.149073 -0.000088 -0.198225 127 100 127
0.119947 0.004437 -0.047248 128 100 126
0.078295 -0.006712 0.175182 126 100 128
0.168187 0.049640 0.225083 133 100 121
-0.159484 0.100823 0.219802 140 100 114
0.247725 -0.283511 -0.303493 91 100 163
-0.120191 0.034446 -0.208749 131 100 123
-0.130272 0.029916 -0.086125 131 100 123
-0.169689 0.021199 0.111168 130 100 124
-0.105534 0.117552 -0.140769 142 100 112
-0.204271 0.035316 0.007876 132 100 122
-0.175424 0.079829 -0.181454 137 100 117
-0.185925 0.014587 0.074146 129 100 125
-0.232718 0.017953 0.145159 129 100 125
-0.247384 0.069453 0.327560 136 100 118
0.167315 0.095786 -0.022100 139 100 115
-0.078197 0.013535 -0.008260 129 100 125
-0.236403 -0.003127 0.259896 127 100 127
-0.098448 0.050661 -0.006757 133 100 121
0.025058 0.015140 -0.136952 129 100 125
0.188073 0.066322 0.079766 135 100 119
-0.077392 0.025639 -0.114191 130 100 124
0.249236 0.115625 -0.207437 142 100 112
0.128781 0.103694 -0.196277 140 100 114
0.156417 0.084786 -0.227768 138 100 116
-0.140763 -0.033064 0.135463 123 100 131
0.169583 -0.031321 0.017505 123 100 131
0.156526 0.024019 -0.095733 130 100 124
-0.239640 0.002155 0.247652 127 100 127
-0.038324 -0.003284 0.191571 127 100 127
-0.119688 0.038670 0.005669 132 100 122
0.113785 0.071328 0.212427 136 100 118
-0.039988 -0.430627 -0.322379 72 100 182
0.121001 0.005428 -0.014173 128 100 126
-0.151055 -0.023285 -0.065006 124 100 130
0.067744 0.035948 -0.138699 132 100 122
0.099898 0.057846 0.232401 134 100 120
0.248037 0.057021 0.014491 134 100 120
-0.168736 0.050134 0.204902 133 100 121
0.100769 0.061839 0.211025 135 100 119
-0.136403 0.039414 -0.189447 132 100 122
0.167687 0.071829 -0.134065 136 100 118
-0.049551 -0.004014 0.169341 126 100 128
0.229340 0.003506 -0.073355 127 100 127
-0.058403 0.016868 0.212566 129 100 125
0.064506 -0.025244 0.256286 124 100 130
-0.237495 0.049943 -0.182128 133 100 121
-0.070025 -0.015684 0.226787 125 100 129
0.000153 0.009816 0.223416 128 100 126
0.097626 0.023933 -0.150233 130 100 124
-0.212911 0.050151 0.006441 133 100 121
0.034007 0.082060 -0.188158 137 100 117
0.090818 0.100974 -0.367181 140 100 114
0.325725 0.023784 0.250563 130 100 124
0.097347 0.007594 -0.318682 128 100 126
0.236098 0.066623 -0.046590 135 100 119
0.004243 0.000389 -0.029185 127 100 127
-0.231009 0.024305 -0.014403 130 100 124
0.015860 0.034628 0.162812 131 100 123
-0.175516 0.072027 0.029036 136 100 118
-0.083731 0.050859 0.191014 133 100 121
-0.155528 0.078775 -0.116717 137 100 117
0.191188 0.023586 -0.039850 130 100 124
-0.206369 0.016780 -0.095850 129 100 125
-0.065116 0.036229 0.279176 132 100 122
-0.061175 0.019626 0.313737 130 100 124
-0.207355 0.005683 -0.086818 128 100 126
-0.308028 0.040898 0.111523 132 100 122
0.046694 0.085300 0.198079 138 100 116
-0.264099 -0.053514 0.494647 120 100 134
0.134893 0.005199 0.190374 128 100 126
0.235511 0.047482 -0.144761 133 100 121
-0.003188 0.020327 -0.172081 130 100 124
-0.007721 0.012406 0.167745 129 100 125
0.530180 -0.469095 0.017178 67 100 187
0.081504 0.099883 -0.331223 140 100 114
-0.015480 0.076364 -0.199135 137 100 117
-0.238463 0.009216 -0.050509 128 100 126
-0.166511 0.002947 0.075284 127 100 127
-0.060793 -0.015016 0.040551 125 100 129
0.155911 0.034091 -0.067329 131 100 123
-0.100823 0.059308 -0.327258 135 100 119
-0.058651 0.041189 0.216498 132 100 122
-0.062011 0.021548 -0.185965 130 100 124
0.256362 0.046325 -0.032148 133 100 121
0.187793 -0.666126 0.327928 42 100 212
-0.092899 0.048374 -0.279450 133 100 121
0.265719 0.038008 0.035255 132 100 122
0.044641 0.007257 -0.243860 128 100 126
0.020236 0.002540 -0.002083 127 100 127
0.079519 0.070950 0.180860 136 100 118
0.247294 0.044798 0.041656 133 100 121
-0.151362 0.067170 0.075134 136 100 118
-0.210637 0.007797 -0.065764 128 100 126
0.115627 0.028335 -0.109161 131 100 123
0.134959 0.112045 0.255504 141 100 113
0.096201 0.052226 0.057659 134 100 120
-0.245289 0.005767 0.112395 128 100 126
-0.160917 0.043522 0.142697 133 100 121
0.036721 -0.327091 0.375000 85 100 169
-0.114850 0.048046 -0.170425 133 100 121
-0.138680 0.322413 -0.200729 168 100 86
0.238956 0.062817 0.007078 135 100 119
-0.162536 0.010947 -0.158026 128 100 126
0.397962 0.070582 0.136256 136 100 118
0.042514 0.012266 -0.167342 129 100 125
-0.139202 0.050502 0.208908 133 100 121
-0.215880 -0.442543 0.273238 71 100 183
0.170535 -0.014456 -0.426451 125 100 129
0.193702 -0.002137 -0.103955 127 100 127
0.224083 0.095130 -0.170793 139 100 115
-0.120156 0.061578 0.067818 135 100 119
0.141673 0.033765 -0.252585 131 100 123
-0.111386 0.066413 -0.051827 135 100 119
-0.353496 -0.045799 0.279211 121 100 133
-0.290448 0.067177 0.167360 136 100 118
-0.219983 0.061274 0.192669 135 100 119
-0.011544 0.052591 -0.132892 134 100 120
-0.042113 0.030114 0.057333 131 100 123
0.236151 0.085582 0.031374 138 100 116
0.189457 0.016933 -0.018534 129 100 125
0.027921 0.020907 0.040619 130 100 124
0.083552 0.054572 -0.130053 134 100 120
-0.283250 0.005796 -0.130867 128 100 126
-0.140120 0.051856 0.138017 134 100 120
-0.055061 0.046956 0.149758 133 100 121
-0.016894 -0.039937 -0.088294 122 100 132
-0.236347 0.002316 -0.143761 127 100 127
0.127625 0.068110 0.184041 136 100 118
-0.126798 0.063385 -0.020585 135 100 119
-0.178445 0.722840 0.223076 219 100 35
0.309596 0.018498 0.053764 129 100 125
-0.236985 -0.479774 -0.283806 66 100 188
0.229477 0.044108 -0.151897 133 100 121
0.189912 0.046882 0.133341 133 100 121
0.330094 -0.044463 0.076564 121 100 133
-0.032723 -0.003579 -0.224068 127 100 127
0.107597 0.006253 -0.060399 128 100 126
-0.180192 0.015264 -0.099411 129 100 125
-0.149023 0.071294 -0.246051 136 100 118
0.273656 0.034478 -0.066130 131 100 123
0.035426 0.039334 -0.069851 132 100 122
0.156956 0.020356 0.009007 130 100 124
-0.189179 -0.027800 -0.078573 123 100 131
-0.224829 -0.022203 0.033526 124 100 130
0.059159 0.076351 0.059776 137 100 117
0.294461 0.109641 0.064407 141 100 113
0.058203 -0.655287 -0.498789 43 100 211
-0.330824 -0.520899 -0.449241 61 100 193
-0.280912 -0.003067 -0.193233 127 100 127
0.065208 0.048509 0.066548 133 100 121
-0.066923 0.018707 0.103603 129 100 125
-0.037671 0.017851 0.180378 129 100 125
-0.249600 0.082690 -0.120629 138 100 116
-0.056785 0.022292 0.048267 130 100 124
0.162854 0.024579 0.096387 130 100 124
-0.307625 -0.224025 0.269767 98 100 156
0.121791 0.068931 -0.189267 136 100 118
-0.020347 0.035907 -0.208911 132 100 122
-0.212778 0.085609 -0.030974 138 100 116
0.334644 0.383912 0.278567 176 100 78
0.063454 0.036709 0.210246 132 100 122
-0.169943 0.025705 0.097859 130 100 124
0.137416 0.057324 -0.064667 134 100 120
0.008779 0.023894 -0.278310 130 100 124
-0.082599 0.039046 -0.188423 132 100 122
0.088308 0.086369 -0.168154 138 100 116
0.023118 0.069647 -0.276485 136 100 118
0.277689 0.132656 0.121203 144 100 110
0.152541 0.077046 -0.132648 137 100 117
0.110751 0.009519 0.260246 128 100 126
0.227713 0.042781 0.117098 132 100 122
0.183006 0.062371 -0.204405 135 100 119
0.053260 0.033965 0.209633 131 100 123
0.064528 0.006415 0.209540 128 100 126
-0.351954 0.127218 0.296421 143 100 111
0.247493 0.075245 0.023984 137 100 117
0.275513 0.060616 0.128171 135 100 119
-0.100597 0.024138 0.061015 130 100 124
0.117322 0.070486 -0.126596 136 100 118
-0.131179 0.061788 -0.152942 135 100 119
-0.133852 -0.012100 0.112505 125 100 129
0.471538 0.036020 -0.172824 132 100 122
0.041801 -0.004860 0.060663 126 100 128
0.166375 -0.055544 0.162323 120 100 134
-0.028070 0.067456 -0.245509 136 100 118
0.075373 -0.034013 0.076094 123 100 131
0.235045 0.101941 -0.203229 140 100 114
0.205314 0.046020 -0.010717 133 100 121
0.179635 0.053668 0.235208 134 100 120
-0.287621 -0.354293 -0.355608 82 100 172
0.170311 0.043181 -0.068519 133 100 121
-0.114078 0.050242 -0.272389 133 100 121
0.028278 -0.008137 -0.231377 126 100 128
0.148822 -0.007696 0.289796 126 100 128
-0.127635 0.005939 0.198867 128 100 126
0.102369 0.036129 -0.188138 132 100 122
0.078046 0.043655 0.081298 133 100 121
0.130784 0.050253 -0.043164 133 100 121
0.058551 0.015945 -0.235797 129 100 125
0.183466 0.037817 -0.145044 132 100 122
-0.086930 0.014488 -0.263409 129 100 125
0.180105 0.049779 -0.014372 133 100 121
-0.125684 0.058663 -0.060307 134 100 120
0.175227 0.076937 -0.203860 137 100 117
0.114583 0.030299 -0.101526 131 100 123
0.061662 0.002388 -0.226604 127 100 127
0.515823 -0.140338 -0.032783 109 100 145
-0.122587 -0.014079 0.254792 125 100 129
0.176868 0.015409 -0.095967 129 100 125
0.083282 0.055427 -0.102328 134 100 120
0.165208 0.065807 0.229860 135 100 119
-0.136409 0.057872 -0.189171 134 100 120
-0.065572 0.021855 0.123865 130 100 124
-0.192933 0.043955 0.062420 133 100 121
0.078299 -0.002821 -0.086661 127 100 127
-0.500694 -0.637358 -0.137740 46 100 208
0.147398 0.064167 0.224286 135 100 119
0.228280 0.007631 0.149770 128 100 126
0.231924 0.021121 -0.112103 130 100 124
0.187936 0.031036 0.193476 131 100 123
0.126959 0.039266 0.249733 132 100 122
-0.182481 -0.049135 0.036699 121 100 133
-0.208370 0.076240 -0.020407 137 100 117
-0.100892 0.100525 0.242490 140 100 114
0.222794 0.003861 0.080193 127 100 127
-0.419137 -0.743406 0.062950 32 100 222
-0.294543 0.487617 0.105861 189 100 65
-0.057985 0.058971 -0.249516 135 100 119
-0.143408 0.499532 0.385474 191 100 63
0.177297 0.462331 -0.197449 186 100 68
-0.129814 0.348095 -0.273958 171 100 83
0.101830 0.018881 -0.188552 129 100 125
-0.244966 -0.018059 -0.197569 125 100 129
0.022737 0.058238 0.196628 134 100 120
0.259130 0.055133 0.175324 134 100 120
0.078902 0.049882 0.209910 133 100 121
0.229062 0.029201 -0.033870 131 100 123
0.172710 0.046420 -0.041838 133 100 121
0.052489 0.021800 0.141062 130 100 124
-0.193562 0.053818 0.096715 134 100 120
0.165686 0.098670 0.100077 140 100 114
-0.077767 0.081442 -0.287095 137 100 117
0.182097 0.015487 0.189769 129 100 125
-0.030656 0.056111 -0.093932 134 100 120
-0.248894 -0.489469 -0.330845 65 100 189
-0.193532 -0.006071 -0.027555 126 100 128
-0.130781 0.012327 0.143651 129 100 125
0.132973 0.033303 0.175781 131 100 123
0.166483 0.344514 -0.287841 171 100 83
-0.189519 0.004513 0.097797 128 100 126
0.144135 -0.000181 0.025562 127 100 127
-0.199211 0.010173 -0.082063 128 100 126
-0.263151 0.051532 0.075800 134 100 120
-0.154223 0.009583 -0.204959 128 100 126
-0.125521 0.018764 0.020372 129 100 125
0.022888 0.067176 0.329107 136 100 118
0.317216 0.020355 0.210787 130 100 124
-0.493781 -0.498797 -0.003208 63 100 191
0.125168 0.068621 0.027867 136 100 118
-0.207916 -0.043500 -0.360035 121 100 133
0.186014 0.037346 0.289813 132 100 122
-0.193188 -0.014136 -0.048457 125 100 129
0.062377 0.010490 0.250104 128 100 126
0.057920 0.055302 -0.243183 134 100 120
0.257419 0.051009 0.100896 134 100 120
0.158131 0.014087 0.204310 129 100 125
-0.185679 0.088757 0.089064 138 100 116
0.161826 0.018270 -0.109051 129 100 125
-0.172184 0.120505 0.165058 142 100 112
-0.088865 0.055929 -0.071856 134 100 120
0.209068 0.005489 -0.176177 128 100 126
-0.213931 0.053029 -0.354228 134 100 120
-0.242007 0.024064 -0.212283 130 100 124
0.010652 0.047373 -0.173285 133 100 121
-0.122917 -0.360971 0.502305 81 100 173
-0.133575 0.010585 0.200682 128 100 126
0.131461 0.104373 -0.181784 140 100 114
-0.127496 0.057698 -0.132135 134 100 120
-0.198994 0.055777 0.172475 134 100 120
0.284044 0.061455 0.024966 135 100 119
-0.292945 0.081361 -0.217608 137 100 117
-0.091346 0.060592 -0.214806 135 100 119
-0.093076 0.021086 -0.282930 130 100 124
0.117525 0.066040 0.011764 135 100 119
-0.051316 0.026049 -0.311208 130 100 124
0.104565 0.110884 -0.032563 141 100 113
-0.071466 0.004860 0.218909 128 100 126
0.418357 0.731154 0.036508 220 100 34
-0.140841 0.046265 -0.364434 133 100 121
-0.164357 0.002935 0.126921 127 100 127
-0.301761 0.039283 -0.032985 132 100 122
0.091879 -0.001355 0.143998 127 100 127
0.202126 0.012712 0.016580 129 100 125
0.215599 0.060066 0.142482 135 100 119
-0.009318 0.011058 -0.131608 128 100 126
-0.063068 0.036228 0.180105 132 100 122
-0.211216 0.030188 0.084586 131 100 123
-0.143088 0.083926 -0.130992 138 100 116
0.041368 0.000525 -0.195196 127 100 127
-0.053255 0.014751 -0.067184 129 100 125
0.085560 0.020288 0.147477 130 100 124
0.025292 -0.022383 0.223222 124 100 130
-0.171247 0.053147 -0.101861 134 100 120
-0.199653 -0.065804 0.450272 119 100 135
0.248148 0.064222 0.054970 135 100 119
-0.263468 0.044802 0.069989 133 100 121
-0.240116 -0.006082 -0.170726 126 100 128
0.190939 0.029140 -0.035638 131 100 123
-0.303142 0.021280 0.072896 130 100 124
-0.345266 -0.302482 0.204242 88 100 166
-0.333030 -0.006121 0.160339 126 100 128
-0.110972 0.001389 0.361591 127 100 127
-0.038724 0.038697 0.122178 132 100 122
0.016534 0.004550 -0.003654 128 100 126
0.274960 0.047960 0.139558 133 100 121
0.290185 0.007513 0.002947 128 100 126
-0.100860 0.010895 0.177079 128 100 126
-0.070850 -0.019160 -0.230727 125 100 129
0.182166 0.087328 0.001077 138 100 116
-0.162579 0.089254 0.119352 138 100 116
0.050379 0.005187 0.171583 128 100 126
0.173443 0.040495 -0.138156 132 100 122
-0.164786 0.119804 0.317629 142 100 112
0.125612 0.008611 -0.128180 128 100 126
0.201662 0.015993 0.181216 129 100 125
-0.149254 0.074877 -0.088162 137 100 117
-0.031216 0.272471 -0.260147 162 100 92
-0.236804 0.022371 0.049049 130 100 124
-0.181236 0.098343 -0.135796 140 100 114
0.124043 0.036031 0.253472 132 100 122
-0.125792 0.034004 -0.141158 131 100 123
-0.029125 0.024634 0.207449 130 100 124
0.287963 -0.785568 0.246585 27 100 227
-0.204662 -0.528967 0.243632 60 100 194
-0.094209 0.018068 -0.262516 129 100 125
-0.144830 0.027595 -0.178958 131 100 123
0.180322 -0.027760 0.051158 123 100 131
0.100022 0.018146 -0.033630 129 100 125
0.176506 0.108754 -0.215542 141 100 113
0.102845 0.588903 -0.215969 202 100 52
-0.050441 0.027571 0.241222 131 100 123
-0.116156 0.019773 0.097012 130 100 124
0.083013 0.010283 -0.162222 128 100 126
0.024120 -0.007711 0.257988 126 100 128
-0.064942 0.061593 0.174250 135 100 119
0.021220 -0.007081 -0.296513 126 100 128
0.018974 0.009324 0.300533 128 100 126
0.168574 0.018812 0.135690 129 100 125
0.078935 0.006883 -0.222002 128 100 126
-0.028195 0.020152 -0.104126 130 100 124
0.265450 0.011154 0.103610 128 100 126
0.231058 -0.005613 0.038471 126 100 128
-0.188882 -0.026807 0.285762 124 100 130
-0.022259 -0.032837 -0.092019 123 100 131
-0.098511 0.076522 -0.147282 137 100 117
0.127503 0.037065 0.072233 132 100 122
0.193666 0.027704 0.165304 131 100 123
-0.075782 0.055188 -0.303627 134 100 120
-0.118939 0.040293 0.059148 132 100 122
-0.194287 0.005030 -0.157819 128 100 126
-0.339228 0.078484 0.012403 137 100 117
0.087902 0.021919 -0.071531 130 100 124
0.134380 0.053714 -0.049079 134 100 120
0.083413 0.002685 -0.324244 127 100 127
0.141226 0.024887 -0.235681 130 100 124
0.109597 0.213086 -0.353671 154 100 100
-0.100883 0.071295 -0.062638 136 100 118
0.063625 0.033218 0.168307 131 100 123
0.104614 0.083734 -0.106318 138 100 116
-0.207125 0.040897 -0.032339 132 100 122
0.019774 0.010391 0.143500 128 100 126
0.244729 0.008887 0.138337 128 100 126
0.166640 0.000444 -0.116859 127 100 127
0.160498 0.016949 -0.020339 129 100 125
-0.192328 -0.067862 0.460869 118 100 136
-0.001344 0.024688 -0.271176 130 100 124
-0.173980 0.024564 -0.091099 130 100 124
-0.100320 0.038642 -0.136098 132 100 122
0.167380 0.061752 -0.066325 135 100 119
0.129711 0.059720 0.000012 135 100 119
0.210481 0.053243 0.144533 134 100 120
-0.183767 -0.041746 0.230905 122 100 132
-0.004309 0.027699 0.241607 131 100 123
-0.074272 0.046067 -0.128658 133 100 121
0.001306 0.058987 -0.266731 135 100 119
0.317970 -0.470771 0.504299 67 100 187
-0.153185 0.055229 0.026339 134 100 120
0.088815 0.076740 -0.047444 137 100 117
-0.028675 0.003654 -0.002463 127 100 127
-0.376666 -0.446412 0.361404 70 100 184
-0.187858 0.016293 -0.003467 129 100 125
-0.236197 0.012930 0.071576 129 100 125
0.271728 0.027092 -0.009094 130 100 124
-0.238328 -0.010780 0.087172 126 100 128
0.335941 -0.007740 0.141166 126 100 128
0.233443 0.038727 0.210059 132 100 122
0.175831 0.078880 0.027676 137 100 117
0.237414 0.028943 -0.117701 131 100 123
0.188691 -0.113054 0.402733 113 100 141
-0.040740 0.066595 0.142177 135 100 119
-0.163067 0.011993 -0.052118 129 100 125
0.101709 0.069119 -0.324563 136 100 118
0.069778 0.051537 0.006027 134 100 120
-0.003093 0.014068 0.164042 129 100 125
0.164060 0.013462 0.246799 129 100 125
-0.172912 0.095247 -0.039736 139 100 115
0.066248 0.026708 0.250161 130 100 124
0.136740 0.036476 0.257213 132 100 122
0.152717 -0.000638 0.199888 127 100 127
-0.113203 0.038359 -0.049225 132 100 122
0.203132 0.060008 -0.027488 135 100 119
0.528413 -0.153343 0.228851 107 100 147
0.264021 0.012767 0.040906 129 100 125
-0.080340 0.000968 -0.119421 127 100 127
-0.136307 0.032424 -0.132781 131 100 123
-0.020887 0.035267 -0.201169 131 100 123
-0.213561 0.006008 -0.186425 128 100 126
0.190659 -0.000188 0.041362 127 100 127
0.176599 0.035287 0.074763 131 100 123
-0.224827 0.052912 0.173532 134 100 120
-0.285220 -0.025867 -0.077202 124 100 130
-0.114841 0.009211 0.060303 128 100 126
0.041966 -0.020933 0.286898 124 100 130
-0.217031 0.021570 0.130264 130 100 124
-0.019411 0.062834 0.193488 135 100 119
-0.193645 0.064212 -0.148817 135 100 119
-0.132597 0.070700 0.244791 136 100 118
0.394350 -0.304669 -0.350340 88 100 166
-0.078450 0.022296 -0.048071 130 100 124
0.100423 -0.085266 0.571532 116 100 138
-0.228516 0.027539 -0.152906 131 100 123
0.308197 -0.508306 -0.411017 62 100 192
0.064375 -0.032675 0.180804 123 100 131
-0.092986 0.028205 -0.267020 131 100 123
0.032363 0.050445 -0.317518 133 100 121
-0.122926 0.049595 -0.023640 133 100 121
-0.233618 0.034241 -0.073723 131 100 123
0.144089 0.032770 0.081294 131 100 123
0.170249 0.046487 0.101257 133 100 121
-0.018415 0.004472 -0.180298 128 100 126
0.104677 0.019862 0.057396 130 100 124
-0.014267 0.000528 0.266688 127 100 127
-0.086913 0.008771 -0.246250 128 100 126
0.219322 0.014245 0.018083 129 100 125
0.069966 0.039896 -0.195609 132 100 122
-0.089941 0.033388 -0.137043 131 100 123
0.039179 0.025081 -0.287473 130 100 124
0.221741 -0.018136 0.016180 125 100 129
0.137395 0.054284 0.154101 134 100 120
-0.172128 -0.040139 -0.210483 122 100 132
0.105731 0.048889 -0.132385 133 100 121
-0.042541 0.056005 -0.244785 134 100 120
0.096578 0.030835 0.181299 131 100 123
0.144107 0.067969 0.169898 136 100 118
0.222206 0.058440 0.214264 134 100 120
0.025532 0.100541 0.282465 140 100 114
-0.054761 0.030793 -0.305459 131 100 123
-0.199432 -0.049474 0.136397 121 100 133
-0.003379 0.028978 -0.196734 131 100 123
-0.143391 0.080743 0.342928 137 100 117
-0.414674 0.039235 0.128068 132 100 122
-0.339371 -0.013364 0.128598 125 100 129
0.079076 0.313205 0.381777 167 100 87
0.082307 0.011247 -0.145934 128 100 126
0.165027 0.055207 -0.230099 134 100 120
-0.226215 0.016654 0.039959 129 100 125
-0.098744 0.062960 0.011922 135 100 119
-0.151558 0.039436 0.012160 132 100 122
-0.268492 0.003342 0.196067 127 100 127
0.271362 0.049381 0.229774 133 100 121
0.203356 0.083436 0.169243 138 100 116
0.120205 0.059803 -0.149715 135 100 119
0.336618 -0.005332 0.166230 126 100 128
-0.171255 -0.006767 -0.140035 126 100 128
-0.203235 0.102050 0.089110 140 100 114
-0.180399 0.050747 0.114211 133 100 121
0.375172 0.069636 0.189351 136 100 118
-0.194486 -0.028165 0.162277 123 100 131
0.270125 0.055670 0.057327 134 100 120
-0.009004 0.003457 -0.238759 127 100 127
-0.282548 0.003995 0.223873 128 100 126
0.089955 0.041844 -0.147709 132 100 122
-0.194360 0.056219 0.060490 134 100 120
0.260898 0.088569 0.184307 138 100 116
-0.138022 0.054198 -0.110679 134 100 120
0.029991 0.061588 -0.129749 135 100 119
-0.258507 0.070041 -0.107068 136 100 118
-0.295164 0.048008 0.097592 133 100 121
0.202905 0.065175 -0.092500 135 100 119
-0.167290 0.055117 0.162567 134 100 120
0.055118 0.014804 -0.167741 129 100 125
-0.015917 0.018509 0.255453 129 100 125
-0.251464 0.003720 -0.086508 127 100 127
0.103404 0.094500 -0.186867 139 100 115
-0.240422 0.044962 0.063109 133 100 121
0.103487 0.045902 -0.181374 133 100 121
-0.065760 0.044281 -0.325626 133 100 121
0.178110 -0.007331 0.035855 126 100 128
0.161634 0.096533 -0.154342 139 100 115
0.045610 0.110237 -0.237083 141 100 113
0.116334 0.078448 -0.120719 137 100 117
0.126853 0.031648 -0.039645 131 100 123
0.226328 0.020507 0.198504 130 100 124
-0.174167 0.076315 -0.023722 137 100 117
-0.258285 0.064547 -0.126225 135 100 119
0.190892 -0.000972 0.171822 127 100 127
-0.181789 -0.008159 0.104592 126 100 128
0.219901 0.062208 0.035991 135 100 119
-0.291831 0.012783 0.118957 129 100 125
-0.094411 0.026255 0.114701 130 100 124
-0.062402 -0.001417 0.252107 127 100 127
0.142142 0.040777 0.167341 132 100 122
-0.075262 0.009147 -0.153308 128 100 126
0.163242 0.021359 -0.080680 130 100 124
-0.032427 0.051781 0.229835 134 100 120
0.087586 0.011458 -0.154831 128 100 126
-0.074594 0.014798 -0.103870 129 100 125
0.184545 0.054878 0.108962 134 100 120
-0.267099 0.060404 0.109737 135 100 119
0.325930 0.046455 -0.170157 133 100 121
-0.135187 -0.029965 0.094521 123 100 131
-0.057154 0.073956 -0.260947 136 100 118
-0.236045 0.031149 0.051454 131 100 123
0.176670 0.077273 -0.042174 137 100 117
0.094350 0.050392 -0.211092 133 100 121
-0.211897 0.013027 -0.178269 129 100 125
0.140177 0.035903 -0.249688 132 100 122
-0.128641 0.036557 0.153219 132 100 122
-0.084167 0.064200 0.065653 135 100 119
0.064066 0.018796 -0.167589 129 100 125
0.119267 0.008875 -0.142862 128 100 126
-0.338079 -0.021774 -0.108508 124 100 130
0.080777 0.015649 -0.202781 129 100 125
-0.166834 0.017724 0.103219 129 100 125
0.116122 0.085022 0.221862 138 100 116
-0.135091 -0.007707 -0.055222 126 100 128
0.127076 0.009119 0.112572 128 100 126
-0.066839 0.062597 -0.262908 135 100 119
-0.226869 -0.011976 -0.193110 125 100 129
-0.292479 -0.032878 0.129081 123 100 131
0.348120 0.121731 -0.141044 143 100 111
-0.154309 0.015719 0.064863 129 100 125
-0.164141 0.029292 0.180816 131 100 123
-0.041068 -0.006542 0.204031 126 100 128
0.198183 0.068755 -0.233943 136 100 118
-0.185063 0.032138 0.218054 131 100 123
-0.085945 0.008206 0.070214 128 100 126
-0.170148 0.004312 0.173396 128 100 126
0.269592 -0.002229 0.109696 127 100 127
-0.302043 0.007453 -0.127951 128 100 126
0.260623 0.125767 0.230824 143 100 111
-0.106494 0.004524 0.012621 128 100 126
0.137985 0.027377 0.120674 130 100 124
0.286824 -0.009605 0.170820 126 100 128
-0.194088 0.083876 0.054303 138 100 116
0.016709 0.003679 -0.428157 127 100 127
-0.315742 -0.048186 0.233947 121 100 133
-0.231414 -0.040567 0.002644 122 100 132
0.246612 0.034365 -0.086172 131 100 123
-0.142865 -0.098489 -0.313173 114 100 140
-0.196772 0.003898 0.129309 127 100 127
0.147802 -0.017611 -0.181681 125 100 129
0.304059 0.023496 0.230968 130 100 124
-0.244536 0.025481 -0.192134 130 100 124
-0.100137 0.037506 -0.155860 132 100 122
-0.274315 0.028635 -0.409791 131 100 123
-0.198826 0.056215 -0.093246 134 100 120
-0.136974 0.018262 -0.238039 129 100 125
0.126544 -0.005048 -0.190784 126 100 128
0.138325 0.095770 -0.045139 139 100 115
0.125504 0.038870 -0.191643 132 100 122
-0.134624 0.025926 0.124965 130 100 124
-0.177931 0.040285 0.004665 132 100 122
0.045122 -0.000199 0.257926 127 100 127
-0.218000 0.082750 -0.137683 138 100 116
0.231613 0.056093 0.288223 134 100 120
0.191911 0.060859 0.152187 135 100 119
0.206385 0.075342 -0.028863 137 100 117
0.160300 -0.022959 0.026828 124 100 130
-0.159482 0.011220 0.164493 128 100 126
-0.517559 -0.361471 0.028902 81 100 173
-0.264920 0.059833 0.103552 135 100 119
0.039269 0.112765 -0.278646 141 100 113
0.214574 0.047630 0.025357 133 100 121
0.424415 0.048642 0.050562 133 100 121
0.130006 0.037342 0.220453 132 100 122
0.038997 0.032819 0.108031 131 100 123
0.156468 0.068312 -0.073144 136 100 118
-0.198816 0.031389 0.091531 131 100 123
-0.012156 -0.020492 -0.220924 124 100 130
0.108635 0.001067 0.158388 127 100 127
-0.250501 0.041192 -0.055413 132 100 122
0.057943 -0.033633 0.177201 123 100 131
-0.023458 0.031385 0.278703 131 100 123
0.124698 0.032315 -0.222129 131 100 123
-0.071700 0.038833 -0.084531 132 100 122
-0.359125 0.092464 0.295679 139 100 115
-0.245688 0.013398 -0.033355 129 100 125
0.014113 -0.004196 -0.298571 126 100 128
0.146018 0.032790 0.042279 131 100 123
-0.163137 0.043118 -0.049993 132 100 122
0.027839 0.069456 0.195404 136 100 118
-0.408154 -0.705187 0.557681 37 100 217
-0.033265 0.059791 -0.172336 135 100 119
-0.397930 -0.488479 -0.196587 65 100 189
-0.128120 0.030211 -0.055029 131 100 123
0.227874 0.034507 0.201479 131 100 123
-0.234919 0.081118 0.085593 137 100 117
0.085990 0.025144 -0.096455 130 100 124
0.136151 0.078571 0.087868 137 100 117
0.033714 -0.030888 0.368627 123 100 131
-0.204883 0.012853 0.140524 129 100 125
-0.066575 0.033856 0.079605 131 100 123
0.224954 -0.397763 0.280985 76 100 178
-0.123602 0.035571 0.029399 132 100 122
-0.363286 -0.081048 0.009565 117 100 137
-0.205835 0.068817 -0.123294 136 100 118
0.066700 0.083326 0.164805 138 100 116
0.091918 0.052098 0.030748 134 100 120
0.142354 0.047111 0.224286 133 100 121
-0.143796 0.031667 0.148681 131 100 123
-0.031680 0.000660 -0.255507 127 100 127
-0.124127 0.009015 0.240910 128 100 126
-0.122167 0.039043 0.221271 132 100 122
0.102442 0.064295 -0.309884 135 100 119
-0.153281 0.015971 0.118866 129 100 125
-0.191017 0.046779 -0.073645 133 100 121
0.045678 0.049385 0.210916 133 100 121
-0.339035 -0.081705 0.094352 117 100 137
0.517951 -0.795557 0.074960 26 100 228
-0.079275 -0.482166 0.460973 66 100 188
0.178222 0.074704 0.129387 137 100 117
0.025939 -0.013688 -0.028654 125 100 129
-0.218644 0.038964 -0.073178 132 100 122
0.071647 0.042615 -0.275185 132 100 122
0.028828 0.028496 0.177488 131 100 123
0.108063 0.094979 -0.016954 139 100 115
0.217270 0.044462 -0.005670 133 100 121
0.161080 -0.025639 0.088934 124 100 130
0.208750 -0.030836 0.248816 123 100 131
0.075268 0.017938 0.216057 129 100 125
-0.051829 0.382063 0.164515 176 100 78
-0.075069 0.064253 -0.165649 135 100 119
-0.085845 -0.008088 -0.325073 126 100 128
-0.282905 0.030296 -0.024678 131 100 123
-0.031995 0.019675 -0.172472 130 100 124
0.145909 0.007539 -0.260359 128 100 126
-0.262876 -0.701096 0.171391 38 100 216
0.165628 0.034680 -0.252373 131 100 123
-0.076451 0.037076 0.182898 132 100 122
-0.208482 0.023499 0.024626 130 100 124
0.031273 -0.000433 -0.233885 127 100 127
0.099410 0.058541 -0.253929 134 100 120
0.183180 0.078814 -0.044782 137 100 117
0.384855 -0.059801 0.389404 119 100 135
0.257187 0.040447 0.495408 132 100 122
0.216181 0.067868 0.082983 136 100 118
-0.225986 0.021638 0.063440 130 100 124
-0.156680 0.037193 -0.120433 132 100 122
-0.074134 0.034368 0.159807 131 100 123
-0.058789 0.002174 0.217518 127 100 127
0.143761 0.040910 -0.183765 132 100 122
-0.124319 -0.006869 0.083632 126 100 128
0.287577 0.071032 0.031408 136 100 118
-0.214430 -0.499228 0.520507 63 100 191
0.123819 0.055761 0.347759 134 100 120
-0.100136 0.041373 0.197837 132 100 122
-0.066887 0.090744 0.140414 139 100 115
-0.282429 0.036909 -0.312823 132 100 122
-0.228126 0.006396 0.196178 128 100 126
0.217587 0.120862 -0.139513 142 100 112
0.188428 0.037294 -0.045057 132 100 122
0.139550 0.083977 0.107466 138 100 116
0.022624 0.019756 0.234602 130 100 124
-0.132522 0.026135 0.033576 130 100 124
0.028088 -0.019248 -0.237421 125 100 129
-0.269756 0.037372 -0.024562 132 100 122
-0.143880 0.046280 -0.184070 133 100 121
0.147268 0.044899 -0.167629 133 100 121
0.191512 0.052767 0.117569 134 100 120
0.112262 0.014266 0.217630 129 100 125
-0.033792 0.031532 0.051164 131 100 123
-0.203699 0.041056 0.048763 132 100 122
0.308145 0.002785 0.009084 127 100 127
-0.300279 -0.027740 0.000776 123 100 131
-0.033033 0.049200 -0.159206 133 100 121
-0.099209 0.001184 0.210118 127 100 127
0.175885 0.064150 0.074527 135 100 119
0.073510 0.040903 0.206265 132 100 122
-0.145797 0.061928 -0.237529 135 100 119
-0.136819 0.038671 -0.218106 132 100 122
-0.234407 0.014273 0.229328 129 100 125
0.183523 0.067704 0.155829 136 100 118
-0.510337 0.066420 -0.019448 135 100 119
-0.042109 0.023091 0.221175 130 100 124
0.063258 -0.013554 0.208401 125 100 129
0.054803 -0.000354 -0.271023 127 100 127
-0.451573 -0.719207 0.161956 35 100 219
-0.002773 -0.031453 0.140002 123 100 131
0.200371 0.013888 0.041376 129 100 125
0.033306 0.087086 0.320068 138 100 116
0.067404 0.033239 0.109309 131 100 123
0.221618 0.069594 -0.044147 136 100 118
0.131761 0.073872 -0.161677 136 100 118
-0.227571 0.346414 0.383662 171 100 83
0.089767 0.042344 0.106049 132 100 122
0.106348 0.027631 -0.135985 131 100 123
0.146484 0.033922 0.006116 131 100 123
0.170074 0.034994 0.056681 131 100 123
0.182581 0.054577 0.105053 134 100 120
0.030297 0.016195 0.268998 129 100 125
-0.147534 0.007347 -0.212696 128 100 126
0.168206 0.072832 -0.158668 136 100 118
-0.228649 0.078263 0.035270 137 100 117
0.163148 0.753512 -0.271381 223 100 31
-0.186480 0.013068 0.013995 129 100 125
0.225764 0.032298 -0.096810 131 100 123
-0.216478 0.017016 -0.073685 129 100 125
0.196241 0.056428 0.171637 134 100 120
-0.259337 0.077815 -0.140218 137 100 117
0.128383 0.027703 0.148905 131 100 123
0.133213 -0.053428 0.203991 120 100 134
0.378718 0.121808 -0.010025 143 100 111
-0.031022 0.036879 0.170951 132 100 122
-0.219176 0.051093 -0.181821 134 100 120
-0.003653 0.063952 -0.188470 135 100 119
-0.191275 0.017752 0.059464 129 100 125
-0.175370 -0.037695 0.047165 122 100 132
0.159309 0.081447 -0.205320 137 100 117
-0.245569 -0.538119 0.305345 58 100 196
-0.124281 -0.039640 -0.082708 122 100 132
-0.015575 0.063242 0.224965 135 100 119
-0.055977 0.074560 -0.252667 137 100 117
-0.174608 -0.025490 -0.124534 124 100 130
-0.177454 0.052728 -0.209763 134 100 120
0.208657 -0.006501 0.198279 126 100 128
0.142852 0.030317 0.088884 131 100 123
-0.108420 -0.006470 0.008448 126 100 128
0.053780 0.011403 0.179521 128 100 126
-0.150514 0.074652 0.246017 137 100 117
0.240314 0.063728 0.110180 135 100 119
-0.078723 0.046771 -0.190443 133 100 121
-0.203001 0.059686 -0.093218 135 100 119
0.078711 0.431550 0.368443 182 100 72
-0.166738 -0.032263 0.146841 123 100 131
-0.073785 0.073327 -0.174420 136 100 118
-0.114895 0.024286 0.030101 130 100 124
0.085693 0.004707 -0.207144 128 100 126
-0.053223 0.049525 -0.084875 133 100 121
0.119973 0.019022 -0.016269 129 100 125
0.196217 0.028355 0.061375 131 100 123
-0.164731 0.047975 -0.053575 133 100 121
0.104158 0.027520 0.236877 131 100 123
0.147517 0.019351 -0.185093 129 100 125
-0.081812 0.101169 -0.212326 140 100 114
-0.089258 -0.039025 0.010181 122 100 132
-0.045152 0.095342 0.193601 139 100 115
0.177711 0.066204 0.035603 135 100 119
-0.223690 0.540454 0.297816 196 100 58
0.211430 0.020589 -0.049288 130 100 124
0.164701 0.029668 0.011038 131 100 123
-0.435655 -0.688468 -0.385894 39 100 215
-0.165124 0.009109 -0.077345 128 100 126
0.055528 0.020170 0.263941 130 100 124
0.337930 0.103465 0.240165 140 100 114
-0.135195 0.003135 0.038984 127 100 127
-0.031922 0.031986 -0.317889 131 100 123
-0.077105 0.022338 0.224019 130 100 124
0.188501 0.008685 -0.051014 128 100 126
-0.356502 -0.265017 -0.041051 93 100 161
-0.248089 0.024697 0.141109 130 100 124
-0.072135 0.047889 0.179015 133 100 121
0.262614 -0.545273 0.232297 57 100 197
0.171967 0.061116 0.136153 135 100 119
-0.298519 0.032958 -0.131952 131 100 123
-0.195278 0.034546 0.146831 131 100 123
0.157667 0.085741 -0.150586 138 100 116
-0.147686 0.030476 0.237268 131 100 123
0.239383 0.035690 -0.012926 132 100 122
-0.109951 0.075274 0.235190 137 100 117
-0.169379 0.007444 0.216118 128 100 126
0.119981 0.030368 0.182687 131 100 123
0.271441 0.038175 -0.059931 132 100 122
0.139200 0.040377 0.147564 132 100 122
0.118181 0.026784 0.206501 130 100 124
-0.020040 -0.010233 0.318766 126 100 128
-0.029398 0.057866 -0.136049 134 100 120
-0.168293 -0.007842 0.080348 126 100 128
-0.048386 0.063968 0.079911 135 100 119
-0.215270 0.017205 -0.049486 129 100 125
-0.185983 -0.006086 -0.162560 126 100 128
0.012445 0.072040 -0.177729 136 100 118
0.196174 0.077889 -0.062102 137 100 117
-0.232286 0.056412 0.023695 134 100 120
-0.162303 0.031443 -0.022367 131 100 123
0.089520 0.078907 -0.108898 137 100 117
-0.245859 0.430865 -0.228750 182 100 72
0.230411 -0.042386 -0.254144 122 100 132
-0.104679 0.001485 -0.099118 127 100 127
-0.432280 0.447997 -0.187889 184 100 70
-0.211887 0.039570 0.104698 132 100 122
-0.077665 0.034330 -0.089064 131 100 123
0.362144 -0.098706 0.367976 114 100 140
-0.122775 0.012431 -0.119983 129 100 125
-0.207818 -0.010089 0.216672 126 100 128
0.189923 0.023377 0.166107 130 100 124
0.136587 0.074003 -0.230587 136 100 118
0.195370 0.093973 -0.181599 139 100 115
0.100465 -0.012699 0.040837 125 100 129
-0.151266 0.072040 0.027973 136 100 118
0.004245 -0.035654 -0.267129 122 100 132
-0.103881 -0.017688 0.188501 125 100 129
0.217080 -0.068661 0.234379 118 100 136
-0.100156 0.031363 -0.286543 131 100 123
-0.445159 -0.011279 -0.191672 126 100 128
0.233580 -0.030020 0.108925 123 100 131
0.194463 0.074498 0.042219 136 100 118
-0.001455 0.004253 -0.274717 128 100 126
0.371586 0.065859 0.124034 135 100 119
-0.262089 0.057938 0.023195 134 100 120
0.190352 0.231923 -0.247661 157 100 97
-0.105813 -0.764947 -0.323615 29 100 225
-0.237375 0.011629 0.060020 128 100 126
-0.314665 -0.006780 -0.090803 126 100 128
0.026455 0.080643 -0.212249 137 100 117
-0.043056 0.041725 0.302362 132 100 122
-0.056307 0.072375 0.383123 136 100 118
-0.148349 0.077329 0.101628 137 100 117
0.404828 -0.178218 -0.354321 104 100 150
0.022151 0.040828 -0.237574 132 100 122
-0.294250 0.128092 -0.139559 143 100 111
0.225224 0.004748 0.029744 128 100 126
-0.082146 0.049456 0.195072 133 100 121
0.200005 0.033264 -0.292977 131 100 123
0.221949 0.109545 0.128251 141 100 113
-0.419375 0.000316 -0.139887 127 100 127
-0.221726 0.029950 -0.075830 131 100 123
-0.110430 0.024842 -0.166510 130 100 124
0.056742 0.085513 -0.293645 138 100 116
-0.012168 0.002308 0.165673 127 100 127
-0.050805 -0.005069 0.139461 126 100 128
0.036656 0.014799 0.150502 129 100 125
0.118837 0.066780 0.165002 136 100 118
0.037637 0.116479 -0.278829 142 100 112
0.032649 0.033030 -0.146450 131 100 123
0.073614 0.071861 -0.015617 136 100 118
-0.088236 0.052114 -0.338938 134 100 120
-0.290976 0.044865 -0.062288 133 100 121
0.211311 0.071131 -0.237930 136 100 118
0.292747 -0.002478 0.116354 127 100 127
0.096286 -0.216077 0.486878 99 100 155
-0.011875 0.005551 0.219810 128 100 126
-0.150893 0.039393 -0.192617 132 100 122
-0.073684 -0.033768 0.280303 123 100 131
-0.004731 -0.008849 0.232766 126 100 128
-0.024046 0.047985 -0.238058 133 100 121
-0.346961 0.102797 -0.412836 140 100 114
0.197061 -0.005017 0.139998 126 100 128
-0.176927 -0.006244 0.368981 126 100 128
-0.218002 -0.020244 0.103803 124 100 130
0.171594 0.138212 0.052128 145 100 109
0.267364 0.114530 -0.006609 142 100 112
0.028623 0.084113 -0.271317 138 100 116
-0.114297 0.041885 0.245859 132 100 122
-0.175824 -0.044177 -0.105430 121 100 133
0.069401 0.030219 0.260212 131 100 123
0.391413 0.010224 0.038515 128 100 126
-0.161573 0.653890 0.098701 210 100 44
0.048863 0.018808 0.038521 129 100 125
0.215995 0.043101 -0.022154 132 100 122
0.071283 0.011041 -0.202576 128 100 126
-0.290024 0.015834 0.038577 129 100 125
0.041909 -0.343264 -0.350175 83 100 171
-0.093802 0.042845 0.154845 132 100 122
-0.077109 0.062708 0.176820 135 100 119
-0.042919 0.020611 -0.298868 130 100 124
-0.391825 0.007984 0.112643 128 100 126
0.225650 0.071573 -0.001789 136 100 118
-0.004666 0.051262 -0.273393 134 100 120
-0.106122 0.068343 -0.194386 136 100 118
-0.185211 0.047276 0.157616 133 100 121
0.134565 0.045178 -0.099351 133 100 121
-0.190904 0.094758 0.216313 139 100 115
0.020029 -0.487498 0.406118 65 100 189
-0.225706 0.085753 -0.135403 138 100 116
-0.165882 0.008305 0.133150 128 100 126
-0.095628 -0.000919 0.160358 127 100 127
-0.166931 0.035118 -0.002176 131 100 123
0.144586 0.094445 -0.033466 139 100 115
0.152059 0.010693 0.140160 128 100 126
0.136394 -0.000649 0.246654 127 100 127
-0.081068 0.018764 0.223890 129 100 125
-0.208866 0.063462 0.121040 135 100 119
-0.084918 -0.004867 -0.191709 126 100 128
0.078732 -0.015275 0.124455 125 100 129
0.068858 0.040116 0.138530 132 100 122
-0.084378 0.023480 0.078756 130 100 124
0.088290 0.024699 -0.243072 130 100 124
-0.054336 0.041610 -0.164344 132 100 122
-0.132126 0.007236 -0.106370 128 100 126
-0.080649 0.001042 -0.259283 127 100 127
0.233937 0.127270 -0.094962 143 100 111
0.036253 0.052518 0.065066 134 100 120
-0.074289 0.053585 0.248395 134 100 120
-0.210940 0.043188 0.257407 133 100 121
0.271844 0.030627 -0.049129 131 100 123
0.163744 0.033312 0.149765 131 100 123
0.190400 0.046664 -0.098728 133 100 121
0.104022 0.000428 -0.015736 127 100 127
-0.025518 0.053218 0.084778 134 100 120
-0.159894 0.005732 -0.002915 128 100 126
0.164734 0.021591 0.268374 130 100 124
-0.139005 0.066881 0.210155 136 100 118
0.028056 0.001231 0.234152 127 100 127
-0.089631 0.044385 0.068405 133 100 121
-0.109810 0.031771 0.188956 131 100 123
0.037506 0.012691 -0.251651 129 100 125
-0.544074 -0.324377 -0.121474 86 100 168
0.179347 0.066867 -0.185980 136 100 118
0.210776 0.307263 -0.064637 166 100 88
0.457174 -0.178732 0.162034 104 100 150
-0.179720 0.050023 0.347142 133 100 121
0.079234 -0.002875 0.002051 127 100 127
0.434819 -0.010369 -0.260486 126 100 128
0.201781 0.064571 0.012752 135 100 119
-0.277641 0.246115 0.156377 158 100 96
-0.031961 0.107393 0.159829 141 100 113
0.032190 -0.591851 0.330127 52 100 202
0.129811 0.000328 -0.035635 127 100 127
-0.066016 -0.009939 0.162317 126 100 128
0.182722 0.035930 0.010755 132 100 122
-0.164544 0.030267 0.119787 131 100 123
0.261310 0.014646 0.143973 129 100 125
-0.044185 0.082924 0.134614 138 100 116
0.212240 0.824687 -0.147367 232 100 22
-0.281229 0.082764 -0.065550 138 100 116
-0.230146 -0.003255 -0.070390 127 100 127
-0.273090 -0.046903 0.138575 121 100 133
0.188090 0.069213 -0.142217 136 100 118
0.068040 0.097467 -0.238550 139 100 115
-0.128221 -0.017525 -0.216895 125 100 129
0.169373 0.032172 0.063233 131 100 123
-0.117543 0.052994 -0.076832 134 100 120
-0.063899 -0.008019 0.010956 126 100 128
0.324520 0.199124 0.169555 152 100 102
0.439860 -0.206950 -0.083586 101 100 153
-0.010653 0.055242 -0.155672 134 100 120
0.152569 0.040173 -0.156679 132 100 122
-0.043042 0.060910 -0.191459 135 100 119
0.176833 0.057148 0.137483 134 100 120
-0.131883 0.027160 0.174102 130 100 124
-0.155088 0.008800 0.122286 128 100 126
-0.021054 0.048707 -0.259402 133 100 121
0.225689 0.033125 -0.127070 131 100 123
-0.093218 0.099527 0.170149 140 100 114
0.066209 0.027748 -0.056156 131 100 123
-0.062187 0.019306 0.317449 129 100 125
0.221192 0.014026 0.169800 129 100 125
0.325834 -0.119684 0.253981 112 100 142
0.366962 0.485435 -0.128750 189 100 65
0.047707 0.031354 0.195090 131 100 123
-0.272845 0.028666 -0.034915 131 100 123
-0.051512 0.047579 -0.274949 133 100 121
-0.148288 -0.029586 0.240716 123 100 131
-0.034158 0.102075 0.257481 140 100 114
0.214883 0.017620 -0.038243 129 100 125
0.209205 0.033268 -0.112888 131 100 123
-0.202250 0.028170 -0.070706 131 100 123
0.017306 0.041422 0.240590 132 100 122
0.194773 -0.051937 -0.335330 120 100 134
-0.093881 0.053070 -0.182088 134 100 120
-0.010158 0.144718 -0.186236 145 100 109
0.138230 0.011843 0.031073 129 100 125
0.068028 0.016547 -0.267052 129 100 125
-0.227094 0.052094 -0.003562 134 100 120
0.089206 -0.019004 -0.182192 125 100 129
-0.000293 0.020683 -0.268528 130 100 124
0.065280 0.032981 0.228536 131 100 123
-0.115646 0.528676 -0.431762 194 100 60
-0.081948 0.133772 -0.236021 144 100 110
0.116031 0.027121 -0.057619 130 100 124
-0.131289 0.043977 0.073700 133 100 121
-0.018487 0.060599 0.184423 135 100 119
0.178847 0.071239 0.051130 136 100 118
-0.068657 0.022042 -0.227162 130 100 124
-0.392599 -0.160191 -0.001064 107 100 147
-0.122180 0.077287 -0.246191 137 100 117
0.184450 0.054590 -0.037828 134 100 120
-0.227869 -0.005103 0.053855 126 100 128
-0.094518 0.011494 -0.172170 128 100 126
-0.288805 0.068754 -0.064071 136 100 118
0.283936 -0.007985 0.275053 126 100 128
-0.314045 0.057622 -0.079819 134 100 120
0.124980 0.032923 -0.115670 131 100 123
-0.205809 0.044310 0.120226 133 100 121
-0.049325 0.083268 -0.094727 138 100 116
0.081407 0.031490 0.251785 131 100 123
-0.070763 -0.000215 0.174325 127 100 127
-0.059423 0.090151 0.253272 138 100 116
-0.114498 0.043295 0.239101 133 100 121
0.036714 -0.004314 0.219805 126 100 128
0.000575 0.010500 0.239648 128 100 126
0.115840 0.055903 0.220451 134 100 120
-0.060994 0.046178 -0.246272 133 100 121
-0.015276 -0.011099 -0.244450 126 100 128
-0.200711 0.045753 0.168611 133 100 121
-0.176433 0.017501 0.041959 129 100 125
-0.007763 0.008145 0.191735 128 100 126
-0.415470 0.077451 -0.067745 137 100 117
-0.187642 0.087466 -0.106247 138 100 116
0.398782 0.367401 0.146572 174 100 80
-0.050611 0.046441 0.193437 133 100 121
-0.262862 0.092822 -0.067032 139 100 115
-0.052563 0.066677 -0.197188 136 100 118
-0.212320 -0.000613 -0.058732 127 100 127
0.136507 -0.006631 0.200387 126 100 128
0.006574 -0.002732 0.162729 127 100 127
0.213420 0.033533 0.125703 131 100 123
-0.145391 0.001518 -0.102869 127 100 127
-0.162154 -0.026183 -0.151599 124 100 130
0.147778 0.046890 0.108645 133 100 121
-0.119951 0.044617 0.139507 133 100 121
0.032656 0.051799 0.178730 134 100 120
-0.061522 0.035645 0.105752 132 100 122
0.169808 0.061019 -0.122557 135 100 119
-0.169540 0.040554 0.139495 132 100 122
0.245903 0.000436 -0.203073 127 100 127
-0.154457 0.019311 -0.225332 129 100 125
0.229007 0.031897 0.122628 131 100 123
-0.132551 -0.017282 0.217727 125 100 129
-0.310235 0.017322 -0.119598 129 100 125
-0.088090 0.021918 0.137758 130 100 124
-0.520942 -0.526584 0.113803 60 100 194
-0.085171 0.026945 0.105393 130 100 124
0.019577 0.007298 0.221676 128 100 126
0.041781 0.051039 0.258868 134 100 120
-0.046593 0.080321 0.126011 137 100 117
0.074835 0.033439 -0.201613 131 100 123
-0.101701 0.012018 0.190484 129 100 125
0.198244 0.118253 -0.053096 142 100 112
-0.229132 0.024784 0.044142 130 100 124
-0.017120 0.003319 0.179723 127 100 127
-0.003663 -0.623090 -0.289985 48 100 206
-0.300687 -0.012179 -0.033974 125 100 129
0.209831 0.013386 -0.171401 129 100 125
-0.018764 0.035911 -0.068928 132 100 122
0.359171 0.464108 0.077442 186 100 68
-0.064194 0.056269 -0.190482 134 100 120
-0.187531 0.037696 -0.140246 132 100 122
0.220608 0.057701 0.061901 134 100 120
0.003468 -0.012399 0.224538 125 100 129
0.205023 -0.011761 0.109923 126 100 128
-0.187830 -0.003122 0.180856 127 100 127
-0.227331 -0.012947 0.060046 125 100 129
-0.057822 0.068107 -0.061554 136 100 118
-0.139704 0.058290 0.170953 134 100 120
0.035227 0.061716 -0.200400 135 100 119
-0.011374 -0.029793 0.164143 123 100 131
0.381975 0.011184 0.117296 128 100 126
0.177717 -0.508636 -0.350426 62 100 192
0.159828 0.019631 0.286322 130 100 124
0.108115 0.035080 -0.045667 131 100 123
0.198211 0.038106 0.013734 132 100 122
-0.127595 0.080376 0.027386 137 100 117
0.004449 -0.230036 -0.376713 98 100 156
-0.079001 0.031933 -0.062850 131 100 123
-0.037659 -0.005426 0.255111 126 100 128
0.264390 0.064929 0.024341 135 100 119
-0.214226 -0.122795 -0.416176 111 100 143
0.228873 0.038063 -0.029542 132 100 122
0.065096 0.049533 0.014144 133 100 121
-0.019745 0.055588 0.282814 134 100 120
-0.088275 0.035772 -0.164224 132 100 122
-0.177293 0.048656 0.033758 133 100 121
-0.086682 -0.023938 0.212941 124 100 130
0.211181 0.056709 -0.187271 134 100 120
-0.036072 -0.006192 0.178275 126 100 128
0.039383 0.021610 -0.116672 130 100 124
0.145109 0.101235 -0.194777 140 100 114
0.186771 -0.002456 0.043790 127 100 127
-0.124176 0.002253 -0.173429 127 100 127
-0.121675 -0.023062 0.255924 124 100 130
-0.085998 0.060405 -0.041260 135 100 119
-0.204603 0.025271 0.141663 130 100 124
-0.112133 0.009737 -0.097203 128 100 126
0.166026 0.042273 0.083496 132 100 122
0.177295 0.070380 0.161813 136 100 118
0.136165 0.085017 0.118333 138 100 116
0.026138 0.058086 0.249884 134 100 120
-0.208753 -0.008171 0.065503 126 100 128
0.131887 0.021766 0.199373 130 100 124
-0.140340 0.052445 -0.231289 134 100 120
0.165468 0.021223 -0.173299 130 100 124
0.119943 0.014224 -0.099415 129 100 125
0.149841 0.050317 -0.178557 133 100 121
0.118747 0.013700 -0.166358 129 100 125
-0.130112 0.019501 0.246017 129 100 125
0.195791 0.025491 0.013933 130 100 124
-0.094060 0.021324 -0.283153 130 100 124
-0.314921 -0.003383 -0.051377 127 100 127
0.034634 0.044920 -0.271082 133 100 121
-0.000558 0.028611 0.109529 131 100 123
0.081697 0.011694 -0.025873 128 100 126
0.231387 0.091673 0.120053 139 100 115
-0.183069 -0.026416 -0.078462 124 100 130
-0.322550 0.789789 0.053216 228 100 26
0.001286 0.031411 -0.153658 131 100 123
-0.242955 -0.037773 0.173786 122 100 132
-0.112406 0.027620 0.200848 131 100 123
-0.188147 0.020234 -0.094707 130 100 124
-0.106482 0.021837 -0.198729 130 100 124
-0.191256 -0.399392 -0.361345 76 100 178
0.116979 -0.579119 -0.576383 53 100 201
0.227535 -0.006067 0.036583 126 100 128
-0.060275 -0.005770 0.270638 126 100 128
0.165387 0.043778 -0.168293 133 100 121
0.079153 0.058172 0.226207 134 100 120
0.175826 0.016611 0.062792 129 100 125
0.001425 0.039977 0.148504 132 100 122
0.046262 0.034861 0.088250 131 100 123
-0.047277 -0.057791 0.242216 120 100 134
0.133407 0.039828 -0.258946 132 100 122
0.089921 -0.012135 0.215675 125 100 129
-0.226883 0.019177 0.103859 129 100 125
0.142107 0.087022 0.180990 138 100 116
-0.144271 0.062552 -0.226448 135 100 119
-0.040005 0.062556 -0.294647 135 100 119
0.019240 0.021411 -0.101641 130 100 124
-0.397136 -0.503644 -0.091523 63 100 191
0.078707 -0.004614 0.240255 126 100 128
0.197513 0.096546 -0.058192 139 100 115
-0.281008 0.059483 0.101070 135 100 119
-0.248488 0.054232 -0.090691 134 100 120
0.074313 0.059285 0.184428 135 100 119
-0.214902 0.010393 -0.166047 128 100 126
0.186538 -0.007721 0.040820 126 100 128
-0.110152 0.023151 0.203769 130 100 124
0.138132 0.083459 -0.049492 138 100 116
0.102438 0.013173 0.203216 129 100 125
0.013249 0.036293 -0.047392 132 100 122
-0.164965 0.033439 0.193978 131 100 123
-0.194799 -0.715546 -0.445434 36 100 218
-0.228716 -0.002181 0.006043 127 100 127
-0.232303 0.076075 0.013094 137 100 117
-0.416171 0.079261 -0.147641 137 100 117
-0.277981 0.038926 -0.032928 132 100 122
0.138097 0.016253 -0.084510 129 100 125
0.237943 0.101615 -0.093026 140 100 114
0.139333 0.042368 0.140291 132 100 122
0.092852 0.301708 0.304256 165 100 89
0.141898 0.029766 0.179475 131 100 123
-0.151349 0.022851 0.008298 130 100 124
0.119986 0.019052 -0.151126 129 100 125
-0.165910 0.005546 0.202309 128 100 126
0.141321 -0.026726 -0.170761 124 100 130
0.121281 0.087595 -0.525101 138 100 116
0.151913 0.039526 0.172899 132 100 122
-0.149245 0.050234 0.222239 133 100 121
