ply
format ascii 1.0
element vertex 1191
property float x
property float y
property float z
property uchar red
property uchar green
property uchar blue
end_header
-0.280204 0.067981 -0.215599 136 100 118
0.120787 0.038579 -0.159115 132 100 122
0.122153 0.099012 -0.116490 140 100 114
-0.034905 0.001134 -0.263038 127 100 127
0.209359 -0.699841 -0.284264 38 100 216
-0.195369 0.008890 -0.120545 128 100 126
0.029601 -0.032443 0.124760 123 100 131
0.220732 -0.007270 0.260849 126 100 128
0.129747 -0.015680 -0.187995 125 100 129
0.145222 0.045890 0.048990 133 100 121
-0.096147 0.019490 0.072722 129 100 125
-0.085126 0.131066 0.229365 144 100 110
0.134324 0.050778 0.191709 133 100 121
0.208210 0.035355 0.236549 132 100 122
-0.190362 0.161784 0.182482 148 100 106
0.174883 0.028950 0.056075 131 100 123
0.219992 0.071592 0.175000 136 100 118
0.144769 0.067118 -0.021833 136 100 118
0.273573 0.056653 0.138568 134 100 120
-0.079444 0.014540 -0.251024 129 100 125
-0.226816 -0.000693 -0.008455 127 100 127
-0.108874 0.044000 -0.244385 133 100 121
-0.227187 0.036127 -0.098550 132 100 122
0.018307 0.024327 0.165984 130 100 124
0.172539 0.035613 -0.031554 132 100 122
-0.248799 0.010631 0.088841 128 100 126
0.188187 0.064207 0.009505 135 100 119
-0.067204 -0.026907 0.065233 124 100 130
0.294553 -0.010755 0.203435 126 100 128
-0.007302 0.071683 -0.200937 136 100 118
-0.311219 0.219935 0.135857 155 100 99
0.170174 0.078604 0.198112 137 100 117
-0.246422 0.070821 -0.082041 136 100 118
0.176459 0.009077 -0.070206 128 100 126
-0.155860 0.010928 -0.155404 128 100 126
-0.145056 0.043011 0.129948 132 100 122
-0.253291 0.063831 0.010573 135 100 119
-0.033975 0.046356 -0.139238 133 100 121
0.131766 -0.002326 0.178224 127 100 127
-0.152905 0.040045 -0.070201 132 100 122
-0.112913 0.082134 -0.122748 137 100 117
0.194910 0.076215 0.008455 137 100 117
-0.165537 0.018362 -0.149211 129 100 125
-0.189554 0.056215 0.025918 134 100 120
-0.025262 0.079653 -0.240075 137 100 117
-0.199855 -0.029460 -0.036927 123 100 131
-0.238365 -0.223503 -0.332973 99 100 155
-0.181483 0.030399 0.110673 131 100 123
0.203595 0.078066 -0.095613 137 100 117
0.094627 0.357342 -0.174111 173 100 81
-0.139078 -0.000722 0.170069 127 100 127
-0.201221 0.010396 -0.224091 128 100 126
-0.142947 0.050817 0.082863 133 100 121
0.133557 0.046379 -0.190894 133 100 121
-0.104328 0.034318 0.029361 131 100 123
-0.092305 0.060557 -0.269397 135 100 119
0.273590 0.033975 0.099413 131 100 123
0.104904 -0.022420 0.203094 124 100 130
-0.308433 0.046161 0.107941 133 100 121
0.196029 0.023040 0.018630 130 100 124
-0.109241 0.060854 0.166416 135 100 119
0.129659 -0.014218 0.184265 125 100 129
-0.161913 0.017198 0.199513 129 100 125
-0.308801 0.051121 0.054840 134 100 120
-0.033056 0.050059 0.196969 133 100 121
0.244769 -0.057623 0.181574 120 100 134
-0.033550 0.031088 -0.189585 131 100 123
-0.137644 -0.020385 -0.010892 124 100 130
0.291084 0.087536 0.255158 138 100 116
-0.010497 0.028452 -0.270253 131 100 123
0.256580 0.117119 0.128032 142 100 112
-0.122725 0.011668 0.176977 128 100 126
0.200403 0.074942 -0.125055 137 100 117
-0.123879 -0.005583 0.157492 126 100 128
-0.117945 -0.011328 0.190991 126 100 128
-0.312194 -0.174412 -0.278626 105 100 149
-0.174253 0.014893 -0.198685 129 100 125
-0.143539 0.011803 -0.063691 129 100 125
-0.031729 -0.860614 -0.528864 17 100 237
-0.048136 0.048689 0.289369 133 100 121
-0.133969 -0.059462 -0.090877 119 100 135
-0.141070 0.027348 -0.151862 130 100 124
0.174089 0.049672 -0.132234 133 100 121
-0.200305 0.036939 0.182690 132 100 122
0.222145 0.043673 -0.208102 133 100 121
-0.151393 0.047090 0.084037 133 100 121
-0.152660 0.035066 0.366072 131 100 123
0.130192 -0.029722 -0.377569 123 100 131
-0.041598 0.024646 -0.377518 130 100 124
0.192825 0.046352 0.187199 133 100 121
0.179759 0.104203 -0.172804 140 100 114
0.245245 0.011744 0.338822 128 100 126
0.248901 0.062636 -0.001462 135 100 119
-0.165559 0.034488 -0.119189 131 100 123
0.295888 0.000171 0.292682 127 100 127
0.061760 0.041814 -0.172998 132 100 122
-0.011966 0.084451 0.196126 138 100 116
-0.005590 0.048703 0.266565 133 100 121
0.115574 0.074956 -0.255790 137 100 117
0.077737 0.114740 -0.160584 142 100 112
-0.269194 -0.204411 0.405167 101 100 153
-0.044016 0.027572 0.277215 131 100 123
0.092765 0.058469 0.295352 134 100 120
0.259559 0.074794 0.101100 137 100 117
0.042969 0.006993 0.178130 128 100 126
0.109011 0.019436 -0.080871 129 100 125
0.220632 0.094222 -0.117855 139 100 115
-0.039417 0.012694 -0.291456 129 100 125
-0.130054 0.079591 -0.078979 137 100 117
0.075349 0.078127 -0.058965 137 100 117
0.447940 -0.015745 -0.289838 125 100 129
-0.135033 -0.004968 -0.002222 126 100 128
0.126397 0.017854 -0.110474 129 100 125
0.212957 -0.021468 0.115637 124 100 130
0.218209 0.040604 0.028608 132 100 122
0.199161 0.008910 0.116773 128 100 126
0.228831 0.064498 -0.009897 135 100 119
0.033962 0.010296 0.204634 128 100 126
-0.153522 0.052992 -0.321746 134 100 120
0.070911 -0.004380 -0.208076 126 100 128
-0.077004 0.041713 0.183526 132 100 122
0.132203 0.088158 0.186429 138 100 116
0.071356 -0.002380 0.120472 127 100 127
0.079256 0.145459 0.265848 146 100 108
-0.051881 -0.039173 -0.259290 122 100 132
0.140959 -0.013951 0.161192 125 100 129
0.212205 0.062293 -0.039476 135 100 119
0.168782 0.050260 0.178778 133 100 121
0.126010 0.068297 0.177300 136 100 118
-0.038595 0.054626 -0.227220 134 100 120
-0.117370 0.061839 0.122917 135 100 119
0.183181 0.026333 -0.069567 130 100 124
-0.424791 -0.073131 -0.418526 118 100 136
-0.194473 -0.004182 -0.062326 126 100 128
0.006087 0.026665 0.237958 130 100 124
-0.174054 0.082889 -0.147173 138 100 116
-0.075592 0.080382 -0.229489 137 100 117
0.219855 0.053484 0.084244 134 100 120
0.082594 -0.016924 -0.078828 125 100 129
-0.223259 0.011929 -0.099550 129 100 125
-0.172209 0.022555 0.047854 130 100 124
0.210568 0.068365 -0.194877 136 100 118
-0.159357 0.033869 0.037914 131 100 123
0.180995 0.068812 -0.087166 136 100 118
-0.165867 0.103827 0.154133 140 100 114
-0.149979 -0.007165 -0.087586 126 100 128
0.034967 0.022998 0.209507 130 100 124
-0.291092 0.004765 -0.048971 128 100 126
-0.158867 -0.034785 -0.241139 123 100 131
-0.022404 0.024222 -0.152260 130 100 124
0.035068 -0.105876 0.537878 114 100 140
0.118627 0.021998 0.119912 130 100 124
-0.258284 0.010848 -0.009192 128 100 126
0.118177 0.115815 -0.177162 142 100 112
-0.137467 0.068026 -0.109952 136 100 118
-0.186039 0.058694 0.175456 134 100 120
0.186666 0.060760 0.017879 135 100 119
-0.251291 0.031205 -0.141574 131 100 123
-0.240098 0.062716 -0.065205 135 100 119
0.234895 0.096335 0.069645 139 100 115
0.112966 -0.281054 0.404984 91 100 163
0.187554 0.079265 0.016270 137 100 117
0.046114 0.013978 0.213737 129 100 125
-0.289391 0.027173 -0.055125 130 100 124
0.214231 -0.019192 0.093680 125 100 129
0.299104 0.049648 -0.019234 133 100 121
0.225804 0.046806 -0.016649 133 100 121
0.110259 0.081258 0.177167 137 100 117
0.286283 0.074859 0.261185 137 100 117
0.153317 -0.026493 -0.096279 124 100 130
0.238916 0.121119 -0.091472 142 100 112
-0.252989 0.040462 0.098145 132 100 122
0.184742 0.050976 0.005391 133 100 121
-0.443151 0.064370 0.254486 135 100 119
-0.134912 -0.011354 0.209886 126 100 128
0.088940 0.025623 -0.204458 130 100 124
0.100953 0.070233 0.158519 136 100 118
0.024943 0.031970 0.262891 131 100 123
-0.075293 -0.021683 0.425979 124 100 130
-0.262600 0.054758 0.001688 134 100 120
-0.277262 0.058777 0.118541 134 100 120
-0.149201 0.061249 0.079724 135 100 119
-0.102778 0.017276 0.188772 129 100 125
0.213084 0.058317 -0.037473 134 100 120
0.215268 0.042401 -0.026093 132 100 122
0.061598 0.032035 -0.200942 131 100 123
-0.225710 0.013442 -0.099187 129 100 125
-0.062521 0.006219 0.197280 128 100 126
-0.144502 0.032818 0.228654 131 100 123
0.593850 -0.012650 -0.042686 125 100 129
-0.239108 -0.008481 -0.059883 126 100 128
0.081506 0.044260 -0.005811 133 100 121
0.108635 0.054555 -0.211303 134 100 120
0.275068 -0.017214 0.066891 125 100 129
-0.188130 -0.047254 0.093705 121 100 133
0.059083 0.047249 0.255546 133 100 121
0.282410 -0.096537 0.085099 115 100 139
-0.119518 0.083406 -0.158995 138 100 116
0.208086 0.093776 -0.096790 139 100 115
-0.184981 0.014966 -0.090360 129 100 125
-0.262690 0.099134 0.022306 140 100 114
-0.219054 0.043088 0.020659 132 100 122
-0.267045 0.021207 -0.148555 130 100 124
-0.179985 0.099578 0.068458 140 100 114
-0.262816 0.063350 -0.063097 135 100 119
0.359418 -0.704619 -0.221471 37 100 217
-0.201223 0.012989 -0.124824 129 100 125
-0.048455 -0.026881 0.053043 124 100 130
0.125565 0.032846 0.278893 131 100 123
0.086527 0.072550 -0.207267 136 100 118
0.140554 0.068916 0.135504 136 100 118
-0.007804 0.064869 -0.160442 135 100 119
-0.262494 0.024680 -0.007154 130 100 124
0.045496 -0.053986 0.373001 120 100 134
-0.217652 0.020098 -0.082389 130 100 124
0.043831 0.015839 -0.186981 129 100 125
-0.114400 0.038892 0.113854 132 100 122
-0.074113 0.060451 0.207113 135 100 119
-0.353820 0.093345 -0.139671 139 100 115
0.123085 0.039802 0.017111 132 100 122
-0.178537 0.024109 0.209908 130 100 124
0.200098 0.015780 -0.029618 129 100 125
0.069724 0.463307 0.299578 186 100 68
-0.233142 0.061409 -0.060615 135 100 119
0.076038 0.045719 -0.238909 133 100 121
-0.022297 0.000537 -0.225074 127 100 127
-0.106810 -0.117514 0.192778 112 100 142
-0.010489 -0.011884 -0.326344 125 100 129
0.053407 0.036154 -0.221566 132 100 122
-0.212043 0.030525 -0.260757 131 100 123
-0.191756 0.027993 0.216801 131 100 123
-0.168375 0.100474 -0.107773 140 100 114
-0.016137 0.038940 0.310914 132 100 122
0.277356 0.034583 0.181812 131 100 123
0.247634 0.011340 0.240721 128 100 126
-0.181675 -0.008960 -0.241211 126 100 128
-0.180461 0.057903 -0.044707 134 100 120
-0.015182 0.008528 -0.296106 128 100 126
0.110097 0.040604 -0.107519 132 100 122
-0.151330 0.041358 0.036627 132 100 122
-0.120898 0.035823 -0.141724 132 100 122
-0.108015 0.035652 0.271971 132 100 122
-0.287709 0.034076 0.101391 131 100 123
0.215257 0.021690 0.168180 130 100 124
-0.265910 0.014564 0.054904 129 100 125
0.155819 0.038123 -0.111627 132 100 122
-0.218701 0.023649 0.043308 130 100 124
-0.225620 0.054595 -0.042908 134 100 120
0.036478 0.665614 0.358771 212 100 42
-0.181792 0.034937 0.209005 131 100 123
0.034429 -0.024343 0.340517 124 100 130
0.097757 0.055693 0.196072 134 100 120
0.029524 0.083712 0.224393 138 100 116
0.175453 0.025930 -0.093442 130 100 124
-0.086385 0.037897 0.023725 132 100 122
0.141200 -0.006078 0.201957 126 100 128
0.190794 0.126192 -0.058930 143 100 111
0.249481 0.064087 -0.124859 135 100 119
-0.293427 0.098450 -0.023050 140 100 114
0.487614 -0.322147 0.082613 86 100 168
0.287589 0.084955 0.007447 138 100 116
-0.121164 0.479360 -0.175342 188 100 66
0.065206 0.035924 0.142620 132 100 122
0.044530 0.054059 0.246925 134 100 120
0.068571 -0.013319 -0.214386 125 100 129
-0.040105 0.020343 -0.183450 130 100 124
0.102689 0.057788 0.271677 134 100 120
-0.298202 -0.007540 0.042580 126 100 128
-0.091995 0.034462 0.111178 131 100 123
0.281591 0.018681 -0.115626 129 100 125
0.138073 0.063287 0.279819 135 100 119
0.185109 0.098719 0.329403 140 100 114
0.169132 0.049959 -0.268778 133 100 121
0.134872 0.044068 0.114722 133 100 121
-0.159771 0.059645 0.078303 135 100 119
0.159768 0.096384 0.203167 139 100 115
0.092740 0.040849 0.276102 132 100 122
-0.228383 0.048520 -0.078436 133 100 121
-0.008186 0.079708 -0.216184 137 100 117
-0.018367 0.613153 -0.346251 205 100 49
0.092887 0.096616 -0.156753 139 100 115
-0.069148 -0.020596 -0.076028 124 100 130
0.150742 0.022365 0.189181 130 100 124
0.030205 0.008779 -0.167971 128 100 126
-0.108527 0.030073 -0.118066 131 100 123
0.249109 0.029687 0.035477 131 100 123
0.245680 0.032720 -0.062939 131 100 123
-0.051117 0.034962 -0.234262 131 100 123
0.211517 0.047769 -0.055387 133 100 121
0.054301 0.032154 -0.167687 131 100 123
0.170664 0.041629 0.060111 132 100 122
0.090751 -0.727212 -0.339452 34 100 220
0.203033 0.074785 -0.056496 137 100 117
-0.185304 0.086521 0.172537 138 100 116
0.254590 0.038036 0.132652 132 100 122
-0.100452 0.085611 0.101496 138 100 116
0.013373 0.064146 0.110691 135 100 119
-0.059779 0.073801 0.094960 136 100 118
-0.180012 -0.623417 -0.216394 48 100 206
-0.340257 -0.620902 -0.237097 48 100 206
-0.255660 -0.024225 0.094828 124 100 130
0.047833 -0.004805 0.043606 126 100 128
0.037966 0.083451 0.284915 138 100 116
-0.103399 0.007932 -0.071770 128 100 126
-0.183719 0.002985 -0.012995 127 100 127
-0.193843 -0.012192 -0.124121 125 100 129
0.058686 0.061189 0.277752 135 100 119
-0.068391 0.078810 -0.256034 137 100 117
0.118441 0.077826 0.181114 137 100 117
-0.168732 0.033089 -0.154870 131 100 123
-0.069889 0.085231 0.154162 138 100 116
-0.062761 0.031524 -0.138011 131 100 123
0.116584 0.010296 -0.252707 128 100 126
-0.062872 0.044461 0.203250 133 100 121
0.023808 0.028355 -0.307883 131 100 123
0.026206 0.053202 0.246253 134 100 120
-0.196982 0.020578 0.217934 130 100 124
0.223798 0.021665 0.286828 130 100 124
0.145884 0.076168 -0.097454 137 100 117
-0.108386 0.082540 -0.212072 138 100 116
-0.024293 0.035602 -0.169622 132 100 122
-0.084045 0.019419 0.057219 129 100 125
0.046637 0.312204 -0.298412 167 100 87
0.263434 -0.025840 0.030898 124 100 130
0.202363 0.043926 -0.154166 133 100 121
0.062904 0.020955 -0.140756 130 100 124
-0.023881 0.078558 -0.076410 137 100 117
0.002689 0.072962 0.234592 136 100 118
-0.038908 -0.002447 0.185359 127 100 127
0.152728 0.037053 -0.218025 132 100 122
0.119591 0.038593 0.195062 132 100 122
-0.178910 0.082511 -0.077030 138 100 116
-0.142386 -0.332802 0.393465 85 100 169
-0.138500 0.080514 -0.107046 137 100 117
0.138434 0.032079 0.197174 131 100 123
0.239294 0.054639 -0.111370 134 100 120
0.100514 0.039413 0.016360 132 100 122
-0.005791 -0.002430 -0.255192 127 100 127
0.143818 0.068071 0.201281 136 100 118
0.127376 0.039305 0.117849 132 100 122
-0.262015 0.053750 -0.105479 134 100 120
-0.095021 0.049578 -0.103319 133 100 121
0.411112 -0.322406 -0.139701 86 100 168
-0.100330 0.011191 0.038731 128 100 126
0.066165 0.043525 -0.181264 133 100 121
-0.046958 -0.011090 -0.204169 126 100 128
-0.059781 0.049263 -0.207084 133 100 121
-0.503545 -0.110887 0.227440 113 100 141
0.018778 0.096060 -0.286075 139 100 115
-0.149579 0.039880 -0.169313 132 100 122
-0.270370 0.050196 -0.182089 133 100 121
-0.164391 0.043846 0.090739 133 100 121
0.053737 0.072584 -0.190398 136 100 118
0.199867 0.082811 -0.053225 138 100 116
-0.225770 0.042367 -0.066670 132 100 122
0.100778 0.061311 0.242129 135 100 119
-0.046658 0.082024 0.171147 137 100 117
0.249582 0.029520 0.042167 131 100 123
0.185694 -0.006286 -0.056119 126 100 128
0.222376 0.009766 0.165503 128 100 126
0.074106 0.034023 0.222957 131 100 123
0.047190 -0.009715 0.230400 126 100 128
0.186441 0.023483 0.019047 130 100 124
-0.154804 0.061682 0.165305 135 100 119
0.235206 0.061729 -0.052873 135 100 119
-0.161321 0.032002 0.124150 131 100 123
-0.211130 0.063251 0.123635 135 100 119
0.119341 0.085692 -0.119583 138 100 116
-0.153468 0.083068 -0.170083 138 100 116
0.217997 0.055335 -0.157395 134 100 120
0.145275 0.071147 -0.148820 136 100 118
-0.185762 0.044012 0.081442 133 100 121
0.352040 0.030092 -0.272017 131 100 123
-0.062733 0.039916 0.242311 132 100 122
-0.157812 0.008853 0.170896 128 100 126
0.037782 0.027760 0.079532 131 100 123
-0.207469 0.046860 -0.291825 133 100 121
0.133202 0.086669 0.188807 138 100 116
0.019181 0.013716 0.192170 129 100 125
-0.202665 -0.021841 0.024048 124 100 130
0.083579 0.020483 0.058976 130 100 124
0.188781 0.013688 0.096016 129 100 125
-0.025622 -0.020387 0.201043 124 100 130
0.079281 0.035426 -0.289671 132 100 122
-0.172080 0.065466 0.108494 135 100 119
-0.176688 0.052550 -0.184516 134 100 120
-0.069697 0.073481 -0.168774 136 100 118
-0.242612 0.044852 -0.072853 133 100 121
0.159271 -0.025441 0.277608 124 100 130
-0.178881 0.034670 -0.236136 131 100 123
-0.217106 0.046938 0.140406 133 100 121
-0.256505 0.021674 0.152467 130 100 124
-0.150032 -0.023432 -0.088944 124 100 130
0.246923 0.017830 0.128334 129 100 125
-0.043347 -0.055752 0.187096 120 100 134
0.188663 -0.000832 0.043619 127 100 127
0.234175 0.177520 -0.031583 150 100 104
-0.133230 0.039559 -0.177306 132 100 122
0.048146 0.108010 -0.211441 141 100 113
-0.173959 0.049618 -0.033459 133 100 121
0.160878 0.095379 -0.034531 139 100 115
0.133950 0.078019 0.087122 137 100 117
-0.107922 -0.020265 0.278307 124 100 130
0.127701 0.032782 -0.047437 131 100 123
-0.270998 0.005248 0.083973 128 100 126
0.164751 0.021226 0.163456 130 100 124
0.094461 0.016277 0.123180 129 100 125
0.186247 0.033996 -0.051852 131 100 123
-0.188086 0.009344 -0.293220 128 100 126
0.021408 -0.064657 -0.183642 119 100 135
0.188108 0.045401 -0.113264 133 100 121
-0.203551 0.070931 -0.204122 136 100 118
0.222734 0.031462 0.041252 131 100 123
-0.090731 0.095910 -0.225535 139 100 115
0.224909 0.062001 0.072939 135 100 119
-0.266608 0.389665 -0.019094 177 100 77
-0.237762 -0.014636 -0.092954 125 100 129
-0.203008 0.033472 -0.036282 131 100 123
0.219906 0.565667 -0.034380 199 100 55
-0.213692 0.053097 -0.122439 134 100 120
-0.255453 0.070887 -0.016037 136 100 118
0.174500 0.074641 -0.161244 137 100 117
0.150928 0.026767 0.189673 130 100 124
-0.131857 0.065036 -0.246329 135 100 119
0.267256 0.345453 0.147923 171 100 83
0.183247 -0.084460 0.036453 116 100 138
0.203784 0.061068 0.170470 135 100 119
0.169820 0.052289 0.163240 134 100 120
0.145334 0.036605 -0.294234 132 100 122
0.074049 -0.003211 -0.133930 127 100 127
-0.237116 0.072572 -0.039511 136 100 118
-0.003854 -0.044732 -0.044614 121 100 133
0.260565 0.054980 -0.165999 134 100 120
0.057942 0.096545 0.280142 139 100 115
0.248466 0.003519 0.120965 127 100 127
-0.184183 0.035205 -0.172010 131 100 123
-0.155316 0.020011 0.021686 130 100 124
0.198551 0.004014 0.203430 128 100 126
0.071119 0.113335 0.228288 141 100 113
0.019123 0.045461 -0.065507 133 100 121
-0.236390 0.001096 0.005718 127 100 127
0.132726 -0.013186 0.393975 125 100 129
0.174807 0.080237 -0.067329 137 100 117
0.190624 0.054889 0.150031 134 100 120
-0.030016 0.004363 0.141597 128 100 126
-0.060850 0.078054 0.154457 137 100 117
0.037561 0.061057 -0.165935 135 100 119
0.128767 0.008496 0.183719 128 100 126
-0.199662 0.060633 -0.205038 135 100 119
-0.109582 -0.029261 -0.070500 123 100 131
0.295509 0.690543 -0.047016 215 100 39
0.084383 0.071784 -0.076636 136 100 118
0.170222 0.058654 0.085217 134 100 120
-0.134442 -0.034994 0.165878 123 100 131
0.212725 0.071164 0.031773 136 100 118
-0.094236 0.059760 -0.284804 135 100 119
-0.238684 0.036463 0.012383 132 100 122
-0.149882 0.029246 -0.170292 131 100 123
0.021521 0.028238 -0.271772 131 100 123
0.229053 0.062082 0.128502 135 100 119
-0.236070 0.073249 -0.237272 136 100 118
0.142195 0.095311 0.124993 139 100 115
-0.179407 0.077777 -0.215912 137 100 117
0.038444 0.036515 -0.254426 132 100 122
0.077804 0.027327 0.210315 130 100 124
-0.074988 0.057537 -0.054825 134 100 120
0.209123 -0.036366 0.283850 122 100 132
-0.229490 0.031786 0.066300 131 100 123
-0.280892 0.004821 0.125042 128 100 126
-0.054901 0.095011 0.302258 139 100 115
-0.343045 -0.074708 -0.287857 117 100 137
-0.125295 0.017129 -0.197619 129 100 125
-0.169050 0.058249 0.198087 134 100 120
-0.107166 -0.006485 0.208408 126 100 128
-0.031803 0.003213 -0.198857 127 100 127
-0.333495 0.190731 -0.119802 151 100 103
-0.172341 0.081114 0.089839 137 100 117
0.081943 0.098219 -0.198967 140 100 114
-0.264240 0.037586 0.093764 132 100 122
-0.262470 0.008925 0.046983 128 100 126
0.056393 0.047471 -0.241658 133 100 121
0.019960 0.013369 0.184951 129 100 125
0.140459 0.112006 -0.224203 141 100 113
0.093682 0.089358 -0.000873 138 100 116
-0.068408 0.060935 0.148054 135 100 119
-0.021756 0.013311 -0.105324 129 100 125
-0.117990 -0.012591 -0.084201 125 100 129
-0.292576 -0.019776 0.108813 124 100 130
0.156257 -0.020642 -0.053194 124 100 130
0.198920 0.104325 -0.166093 140 100 114
0.068949 0.017094 -0.141043 129 100 125
0.028882 0.072940 0.179985 136 100 118
-0.180096 0.047830 -0.170573 133 100 121
-0.192817 0.035457 0.228130 132 100 122
-0.124477 -0.003763 -0.200973 127 100 127
-0.146237 0.108636 0.040943 141 100 113
0.120771 0.044753 -0.027636 133 100 121
-0.309325 0.043071 -0.028734 132 100 122
-0.221567 0.038545 -0.027329 132 100 122
0.149149 0.110661 0.219893 141 100 113
-0.126716 0.028556 0.098536 131 100 123
-0.127813 0.074752 0.006329 137 100 117
0.055491 0.088193 0.094463 138 100 116
-0.149983 0.025663 0.118490 130 100 124
0.204475 0.039444 -0.133362 132 100 122
0.089140 -0.099362 0.437794 114 100 140
0.240387 0.050908 -0.042166 133 100 121
0.237261 0.056368 0.008321 134 100 120
0.518256 -0.385224 0.271330 78 100 176
-0.218354 0.114618 -0.087495 142 100 112
0.147209 0.043033 -0.173413 132 100 122
-0.134602 0.069128 0.178548 136 100 118
0.208523 -0.000430 0.096122 127 100 127
0.150972 0.072917 -0.114805 136 100 118
-0.247449 0.057503 -0.033549 134 100 120
0.141925 0.057974 -0.111333 134 100 120
-0.197524 0.000176 0.018836 127 100 127
0.241134 0.043753 -0.229651 133 100 121
0.180094 0.060625 0.024959 135 100 119
-0.028514 0.043036 -0.219907 132 100 122
-0.080289 0.012340 0.122799 129 100 125
0.116384 -0.000025 -0.245929 127 100 127
0.013536 0.015641 -0.191405 129 100 125
-0.156879 0.073954 -0.240867 136 100 118
0.102781 -0.024877 0.004150 124 100 130
-0.038926 -0.000367 0.253141 127 100 127
-0.114283 0.039573 -0.260781 132 100 122
-0.249770 -0.062303 0.143607 119 100 135
0.155043 0.014927 -0.106878 129 100 125
-0.342527 0.014241 0.124432 129 100 125
0.054403 -0.006771 0.139002 126 100 128
0.000027 0.126287 -0.172852 143 100 111
0.296023 0.078191 0.015914 137 100 117
-0.191853 -0.002828 0.203087 127 100 127
0.003248 0.038106 -0.247694 132 100 122
-0.072772 0.054668 -0.195910 134 100 120
0.060235 -0.457636 0.398514 69 100 185
-0.060343 0.080872 -0.153120 137 100 117
-0.342328 -0.627592 0.072283 47 100 207
-0.159650 0.020186 -0.111450 130 100 124
-0.245092 0.028279 0.198794 131 100 123
0.075014 0.032124 -0.150236 131 100 123
0.188357 -0.026031 0.274631 124 100 130
-0.154116 0.673539 -0.050936 213 100 41
-0.069458 0.009906 0.220519 128 100 126
-0.023959 -0.007979 0.196262 126 100 128
0.214887 0.618544 0.130137 206 100 48
-0.108480 0.012898 0.177527 129 100 125
-0.043370 0.031138 0.164186 131 100 123
-0.036016 -0.002817 0.292336 127 100 127
0.208173 -0.014459 0.196880 125 100 129
0.273987 0.074094 -0.067575 136 100 118
0.018681 0.038039 0.191872 132 100 122
0.193950 0.035335 0.163238 132 100 122
-0.141446 0.031918 -0.178216 131 100 123
0.215525 -0.006250 0.025895 126 100 128
0.049879 0.037279 -0.141048 132 100 122
0.070978 0.025124 0.247455 130 100 124
0.223890 0.035217 -0.141415 131 100 123
-0.223782 0.038630 0.071539 132 100 122
0.230498 0.010386 -0.009428 128 100 126
0.128642 0.057788 0.108182 134 100 120
-0.059939 0.027538 -0.094901 131 100 123
0.174220 -0.015707 0.097874 125 100 129
-0.268472 0.012882 0.129607 129 100 125
-0.270565 0.029611 -0.000595 131 100 123
0.227564 0.019197 -0.002214 129 100 125
-0.159027 -0.019173 0.270064 125 100 129
-0.066811 0.005531 -0.177264 128 100 126
0.057223 0.030955 0.256945 131 100 123
-0.098558 -0.045321 -0.473633 121 100 133
-0.239602 0.057061 -0.059934 134 100 120
0.037384 0.007166 0.086050 128 100 126
0.202794 0.097995 0.049650 139 100 115
0.178381 -0.016334 0.061802 125 100 129
0.167823 0.080386 -0.225317 137 100 117
-0.056942 0.005325 -0.254265 128 100 126
-0.151227 0.040615 0.217565 132 100 122
-0.184045 0.017348 -0.103767 129 100 125
-0.301340 0.008785 0.120524 128 100 126
0.220757 0.046923 0.130175 133 100 121
-0.242871 -0.018699 0.105224 125 100 129
-0.183086 0.090290 -0.041126 139 100 115
0.238651 0.053035 0.066464 134 100 120
-0.031900 0.070456 0.295215 136 100 118
-0.273897 0.000583 0.051210 127 100 127
-0.286553 0.116149 0.094655 142 100 112
0.280050 0.063096 0.065540 135 100 119
0.126170 0.097662 0.166926 139 100 115
-0.109503 0.027473 0.173386 131 100 123
0.218737 0.053914 -0.141730 134 100 120
-0.175627 -0.012114 -0.015193 125 100 129
0.092715 0.012272 -0.249244 129 100 125
-0.028886 0.004383 0.123680 128 100 126
0.176344 0.057524 -0.078520 134 100 120
0.101677 0.050370 0.401343 133 100 121
-0.057861 0.059877 0.054785 135 100 119
0.274850 0.029740 -0.037974 131 100 123
0.164814 0.094433 0.003024 139 100 115
0.209474 0.076990 -0.098268 137 100 117
-0.222518 0.027394 -0.032840 130 100 124
-0.161171 -0.029246 0.066505 123 100 131
-0.162491 -0.023258 -0.093929 124 100 130
-0.201113 0.028647 0.290085 131 100 123
0.145877 0.016253 -0.204348 129 100 125
0.194530 0.036188 0.074227 132 100 122
0.127701 -0.049214 0.222829 121 100 133
-0.210260 0.072940 -0.027862 136 100 118
-0.135191 -0.023956 0.187730 124 100 130
0.021040 0.000959 0.080406 127 100 127
0.044252 -0.010423 0.216622 126 100 128
0.103523 0.043829 -0.110430 133 100 121
0.171136 0.052330 -0.205128 134 100 120
0.147793 0.033255 0.272856 131 100 123
-0.110702 -0.024225 -0.112659 124 100 130
-0.125025 0.040248 -0.018531 132 100 122
0.086241 0.039863 0.291345 132 100 122
-0.221934 0.017759 -0.013573 129 100 125
-0.227795 -0.031776 -0.014449 123 100 131
-0.232390 -0.008733 -0.036079 126 100 128
-0.042118 0.064528 -0.194624 135 100 119
-0.164769 0.019501 0.019148 129 100 125
-0.228895 -0.024997 -0.049480 124 100 130
-0.051829 0.087898 0.221027 138 100 116
0.180638 0.104447 -0.097549 140 100 114
0.137599 0.094905 -0.174922 139 100 115
-0.087407 0.033053 -0.272595 131 100 123
0.042957 0.041774 0.177659 132 100 122
-0.205038 -0.074124 0.441006 118 100 136
-0.077596 0.081789 -0.231406 137 100 117
0.060800 0.050233 0.277306 133 100 121
0.031010 -0.011251 -0.227809 126 100 128
0.133976 0.005520 0.059102 128 100 126
0.261535 0.024979 0.045298 130 100 124
0.022016 0.102741 -0.174827 140 100 114
-0.249215 0.079068 -0.192282 137 100 117
0.223086 0.032180 0.180981 131 100 123
-0.131452 -0.028340 0.231174 123 100 131
0.022725 0.007913 0.273757 128 100 126
-0.014027 0.075043 -0.225278 137 100 117
-0.288685 0.048992 0.073839 133 100 121
-0.212261 0.080646 0.171224 137 100 117
0.231866 0.037513 0.141883 132 100 122
-0.193933 0.025076 0.155283 130 100 124
-0.227084 -0.078027 -0.436584 117 100 137
0.154581 -0.013176 -0.094540 125 100 129
-0.240653 0.036093 -0.141473 132 100 122
-0.196202 0.021207 -0.092453 130 100 124
-0.232792 0.022271 0.110297 130 100 124
0.092525 0.009337 -0.048750 128 100 126
0.209315 0.041544 0.122452 132 100 122
-0.353533 0.465406 -0.102801 186 100 68
0.019268 0.029958 -0.260444 131 100 123
0.046022 0.043349 -0.183656 133 100 121
-0.066857 0.065963 0.232976 135 100 119
-0.019888 0.071957 0.228323 136 100 118
-0.137438 0.048019 -0.216091 133 100 121
-0.194895 -0.009472 -0.056432 126 100 128
0.251893 0.023472 0.026572 130 100 124
0.028567 -0.056944 0.249214 120 100 134
0.187407 0.002119 -0.022537 127 100 127
0.301485 -0.216177 -0.278367 99 100 155
0.132093 0.065051 0.269477 135 100 119
-0.252503 0.068079 0.223122 136 100 118
-0.231933 0.004939 0.150789 128 100 126
-0.012321 0.015046 0.147424 129 100 125
0.101800 0.036787 0.414977 132 100 122
-0.224167 0.055988 -0.021417 134 100 120
0.190360 -0.003887 -0.164889 127 100 127
0.356627 -0.235684 0.031852 97 100 157
0.175770 0.007601 -0.052909 128 100 126
-0.015610 0.018062 -0.123791 129 100 125
0.173684 0.069730 0.157926 136 100 118
-0.174791 0.080571 -0.112333 137 100 117
0.211155 0.028702 -0.161952 131 100 123
0.293104 0.028248 0.219475 131 100 123
-0.028993 0.086074 0.211510 138 100 116
-0.130140 -0.018553 0.204234 125 100 129
-0.191957 0.072578 -0.131906 136 100 118
-0.053190 0.055000 0.138289 134 100 120
0.106532 -0.000708 0.197803 127 100 127
-0.282425 0.016446 0.122178 129 100 125
-0.081180 0.055656 -0.138504 134 100 120
0.159857 0.001666 -0.291340 127 100 127
-0.060945 0.714796 -0.346453 218 100 36
0.242817 0.086561 -0.051280 138 100 116
-0.108285 0.038680 0.239012 132 100 122
0.193272 0.015097 0.111306 129 100 125
-0.039080 -0.027766 -0.050432 123 100 131
-0.264327 0.127880 -0.025490 143 100 111
-0.154183 0.010930 -0.197329 128 100 126
-0.215375 0.201678 0.000919 153 100 101
0.123782 0.103019 -0.112642 140 100 114
0.110602 -0.002442 -0.291852 127 100 127
-0.012902 0.563666 -0.343530 199 100 55
0.198794 0.041072 -0.024626 132 100 122
-0.069753 0.042898 0.120928 132 100 122
0.347514 -0.529550 0.164750 59 100 195
0.126659 0.051771 -0.110412 134 100 120
-0.180764 -0.002741 0.078702 127 100 127
-0.214473 0.019141 0.033088 129 100 125
0.192767 0.101334 -0.285813 140 100 114
0.118147 0.019206 0.133494 129 100 125
-0.004979 0.008496 -0.231041 128 100 126
0.338979 0.007511 0.018973 128 100 126
0.110622 0.026748 0.216485 130 100 124
-0.189484 0.049140 -0.048016 133 100 121
-0.114296 0.069165 -0.287372 136 100 118
-0.144168 0.042357 0.022216 132 100 122
-0.281578 0.064248 -0.023619 135 100 119
0.410334 -0.162524 0.334207 106 100 148
-0.014246 0.042293 0.163199 132 100 122
-0.068738 0.062093 0.156074 135 100 119
0.195849 0.011179 -0.097694 128 100 126
-0.184830 -0.014600 -0.095558 125 100 129
-0.366598 -0.228203 0.289433 98 100 156
0.003522 -0.007600 0.268630 126 100 128
0.211546 0.037622 0.043912 132 100 122
0.258002 0.082641 -0.121346 138 100 116
-0.193964 0.040185 0.104921 132 100 122
-0.306435 0.094373 0.097345 139 100 115
-0.249819 0.035579 0.153595 132 100 122
-0.099598 -0.086371 0.155151 116 100 138
-0.261427 0.027994 -0.054701 131 100 123
0.205211 -0.020006 0.269507 124 100 130
0.028763 0.029544 -0.254011 131 100 123
0.072069 0.078353 0.161176 137 100 117
-0.034430 0.038965 0.101964 132 100 122
0.027931 0.043450 0.126712 133 100 121
0.283849 0.371770 0.264533 174 100 80
0.205054 0.061208 -0.176599 135 100 119
-0.165369 0.008567 -0.044095 128 100 126
-0.224245 0.044630 -0.035751 133 100 121
0.105978 0.100188 -0.100704 140 100 114
0.117360 0.052915 -0.046319 134 100 120
0.100192 0.016025 0.158866 129 100 125
0.181469 0.092124 0.184435 139 100 115
-0.119426 0.059297 0.199828 135 100 119
0.236694 -0.286448 -0.296600 90 100 164
-0.112207 0.070143 -0.122258 136 100 118
-0.190381 0.083198 -0.120003 138 100 116
-0.187219 0.056336 0.088758 134 100 120
-0.096467 0.004623 -0.150677 128 100 126
-0.220968 0.077143 0.038520 137 100 117
-0.178391 0.034771 -0.173644 131 100 123
-0.213102 -0.004024 0.091247 126 100 128
-0.155136 0.078143 0.201619 137 100 117
-0.198917 0.203857 0.333248 153 100 101
0.201758 0.056742 -0.051122 134 100 120
-0.013556 0.022042 0.007350 130 100 124
-0.204417 -0.057655 0.225039 120 100 134
-0.054585 -0.015616 0.106349 125 100 129
0.025367 0.006279 -0.146067 128 100 126
0.214461 0.024755 0.063748 130 100 124
-0.050202 -0.011355 -0.141571 126 100 128
0.226803 0.077482 -0.074147 137 100 117
0.165670 0.082314 -0.189010 137 100 117
0.077517 0.050588 -0.245248 133 100 121
-0.171556 0.059047 0.157573 135 100 119
0.246788 -0.030640 -0.063125 123 100 131
0.188749 0.089133 -0.069373 138 100 116
-0.345934 0.045733 0.270372 133 100 121
-0.033770 0.018871 0.133265 129 100 125
-0.215630 -0.000810 -0.019023 127 100 127
0.117842 0.053002 0.267114 134 100 120
-0.038847 -0.443606 -0.311644 70 100 184
0.086236 0.030305 0.009775 131 100 123
-0.211903 0.006429 -0.134502 128 100 126
0.088844 0.030734 -0.148102 131 100 123
0.155659 0.040303 0.246028 132 100 122
0.179022 0.089226 -0.048353 138 100 116
-0.185817 0.029635 0.184639 131 100 123
0.130509 -0.019665 0.254756 124 100 130
-0.111304 0.036506 -0.250865 132 100 122
0.170478 0.064878 -0.140302 135 100 119
-0.083324 -0.049147 0.177591 121 100 133
0.196543 -0.009152 -0.060372 126 100 128
-0.154326 -0.029629 0.190812 123 100 131
0.060563 0.024492 0.217313 130 100 124
-0.258568 0.010516 -0.231943 128 100 126
0.056970 0.045121 0.207645 133 100 121
-0.031818 -0.008050 0.169407 126 100 128
0.071090 0.036769 -0.207867 132 100 122
-0.249710 0.073243 -0.012001 136 100 118
0.018701 0.021353 -0.203272 130 100 124
0.126373 0.087279 -0.396053 138 100 116
0.304946 0.030377 0.267208 131 100 123
0.075934 0.018105 -0.272068 129 100 125
0.286835 0.088618 -0.042311 138 100 116
0.004372 0.025687 -0.059095 130 100 124
-0.220454 0.081347 0.005627 137 100 117
-0.020374 0.062278 0.122006 135 100 119
-0.208506 0.117727 0.030336 142 100 112
-0.037182 0.026132 0.099549 130 100 124
-0.199824 0.075004 -0.142158 137 100 117
0.258214 0.075051 -0.008285 137 100 117
-0.201270 -0.032151 -0.058727 123 100 131
-0.002026 0.049372 0.266086 133 100 121
-0.083162 0.059585 0.273315 135 100 119
-0.228111 0.007618 -0.119637 128 100 126
-0.247372 0.055170 0.165156 134 100 120
0.056899 0.005163 0.221438 128 100 126
-0.230326 -0.042630 0.460693 122 100 132
0.164850 0.058537 0.207475 134 100 120
0.272056 0.000718 -0.073426 127 100 127
0.053313 0.062919 -0.172530 135 100 119
-0.017821 0.026765 0.205097 130 100 124
0.539826 -0.504882 0.022623 63 100 191
0.096168 0.147063 -0.330628 146 100 108
0.021506 0.022325 -0.220928 130 100 124
-0.190170 0.020367 0.009313 130 100 124
-0.183250 0.015668 0.061427 129 100 125
-0.004805 0.010347 0.038484 128 100 126
0.123006 -0.011593 -0.047177 126 100 128
-0.066715 0.025994 -0.326076 130 100 124
-0.103610 -0.001763 0.128377 127 100 127
-0.059722 0.041963 -0.148410 132 100 122
0.291302 0.023799 0.045815 130 100 124
0.204137 -0.689767 0.381270 39 100 215
-0.044211 0.009353 -0.268661 128 100 126
0.234564 0.045348 -0.042541 133 100 121
0.049389 0.059499 -0.238884 135 100 119
0.047315 0.000262 -0.045365 127 100 127
0.088063 0.017951 0.196584 129 100 125
0.221961 0.062457 0.127115 135 100 119
-0.179257 0.064116 0.063129 135 100 119
-0.218725 0.011161 0.009118 128 100 126
0.090927 0.077134 -0.109400 137 100 117
0.159787 -0.002543 0.244701 127 100 127
0.078169 0.043721 0.105640 133 100 121
-0.266419 0.001113 0.139156 127 100 127
-0.174594 0.005167 0.212705 128 100 126
0.016079 -0.330706 0.353770 85 100 169
-0.113009 0.050345 -0.190831 133 100 121
-0.116674 0.312563 -0.149825 167 100 87
0.193081 0.040104 -0.031302 132 100 122
-0.197367 0.005771 -0.297517 128 100 126
0.312120 0.126412 0.062615 143 100 111
0.024246 0.094226 -0.191444 139 100 115
-0.166200 0.082285 0.208729 137 100 117
-0.186732 -0.424016 0.297572 73 100 181
0.239441 0.007034 -0.388538 128 100 126
0.157489 0.040886 -0.053898 132 100 122
0.222171 0.058762 -0.154865 134 100 120
-0.125529 0.009989 0.028071 128 100 126
0.113218 -0.023437 -0.253746 124 100 130
-0.131818 -0.016772 -0.085916 125 100 129
-0.348211 0.024501 0.201862 130 100 124
-0.227702 0.049426 0.118939 133 100 121
-0.238258 0.054152 0.197129 134 100 120
0.028210 0.074406 -0.100307 136 100 118
0.028124 0.053540 0.071808 134 100 120
0.267617 0.054864 0.041363 134 100 120
0.148748 -0.013891 -0.066766 125 100 129
0.039138 0.056530 0.006768 134 100 120
0.062964 0.050039 -0.149251 133 100 121
-0.212097 0.046334 -0.146366 133 100 121
-0.106516 -0.030474 0.181078 123 100 131
-0.114841 0.032600 0.141818 131 100 123
-0.045612 0.100460 -0.127657 140 100 114
-0.273680 -0.043862 -0.112379 121 100 133
0.101935 0.077803 0.148478 137 100 117
-0.125538 0.016443 0.036752 129 100 125
-0.258011 0.738017 0.225730 221 100 33
0.243327 0.043891 0.112154 133 100 121
-0.210842 -0.459949 -0.274137 68 100 186
0.215493 0.070796 -0.158661 136 100 118
0.098060 0.022214 0.138753 130 100 124
0.317344 -0.006235 0.015227 126 100 128
-0.069923 -0.016279 -0.268979 125 100 129
0.110574 0.010081 -0.013960 128 100 126
-0.189606 0.042161 -0.099509 132 100 122
-0.133842 0.112050 -0.188743 141 100 113
0.250768 0.055319 -0.038590 134 100 120
0.098747 0.043018 -0.018781 132 100 122
0.136879 0.031591 0.096907 131 100 123
-0.229260 0.003105 -0.054350 127 100 127
-0.273979 0.002420 0.019638 127 100 127
0.095600 0.002411 0.013742 127 100 127
0.227104 0.043336 -0.012104 133 100 121
0.046582 -0.691953 -0.520553 39 100 215
-0.312222 -0.479479 -0.435882 66 100 188
-0.315234 -0.027070 -0.159628 124 100 130
0.055076 0.040321 0.073638 132 100 122
-0.096960 0.094783 0.136118 139 100 115
-0.031593 0.048823 0.197412 133 100 121
-0.176325 -0.036065 -0.153513 122 100 132
0.018667 0.049446 0.026019 133 100 121
0.192025 0.025411 0.083480 130 100 124
-0.301440 -0.245494 0.280171 96 100 158
0.146914 0.027458 -0.180169 131 100 123
-0.127481 0.036639 -0.244459 132 100 122
-0.218100 0.030600 -0.054555 131 100 123
0.275392 0.289153 0.234132 164 100 90
0.029394 0.004700 0.242683 128 100 126
-0.100704 0.052596 0.112398 134 100 120
0.167457 0.041869 -0.040236 132 100 122
0.090442 0.024868 -0.258639 130 100 124
-0.105609 -0.039082 -0.215350 122 100 132
0.075434 0.044764 -0.183280 133 100 121
0.004072 0.105224 -0.288405 140 100 114
0.349765 0.085258 0.159053 138 100 116
0.148128 0.042611 -0.099325 132 100 122
0.047983 0.030711 0.230391 131 100 123
0.219617 0.113285 0.085298 141 100 113
0.181443 0.096026 -0.192272 139 100 115
0.033787 0.095670 0.161505 139 100 115
-0.006551 -0.076636 0.176374 117 100 137
-0.318478 0.097401 0.216463 139 100 115
0.264373 0.033245 0.062834 131 100 123
0.283267 0.031126 0.092583 131 100 123
-0.152500 0.053748 0.046702 134 100 120
0.043490 0.069992 -0.066953 136 100 118
-0.131884 -0.027630 -0.187217 123 100 131
-0.180075 0.001418 0.059019 127 100 127
0.465237 -0.031712 -0.131046 123 100 131
-0.017098 0.039275 0.083256 132 100 122
0.130247 0.024554 0.136165 130 100 124
-0.094436 0.056351 -0.288356 134 100 120
0.085473 0.008895 0.063626 128 100 126
0.171145 -0.000554 -0.163198 127 100 127
0.187471 0.092035 0.084412 139 100 115
0.165256 -0.024988 0.231314 124 100 130
-0.278316 -0.325599 -0.369318 85 100 169
0.163146 0.006871 0.004645 128 100 126
-0.182486 -0.051784 -0.206623 120 100 134
-0.043389 0.006090 -0.295352 128 100 126
0.142847 0.041972 0.302944 132 100 122
-0.197181 0.006133 0.204759 128 100 126
0.095762 0.088407 -0.182295 138 100 116
0.080082 0.045294 0.140611 133 100 121
0.079495 0.000611 -0.082769 127 100 127
0.040866 0.084726 -0.234216 138 100 116
0.207498 0.048503 -0.175222 133 100 121
-0.090812 -0.003729 -0.245207 127 100 127
0.194485 0.076989 0.009415 137 100 117
-0.152442 0.097902 -0.098260 139 100 115
0.158282 0.129166 -0.209717 143 100 111
0.114161 0.049665 -0.086205 133 100 121
0.143293 0.002899 -0.197984 127 100 127
0.544811 -0.059270 -0.058525 119 100 135
-0.035432 0.058541 0.234082 134 100 120
0.243133 0.044431 -0.150952 133 100 121
0.135350 0.057524 -0.103448 134 100 120
0.138499 0.056592 0.210671 134 100 120
-0.159900 0.107918 -0.163428 141 100 113
-0.025425 -0.002501 0.158264 127 100 127
-0.195921 0.022913 0.085567 130 100 124
0.070567 -0.002848 -0.103346 127 100 127
-0.536623 -0.621099 -0.133814 48 100 206
0.183001 0.034849 0.269437 131 100 123
0.245271 0.029009 0.134843 131 100 123
0.260951 0.006432 -0.069419 128 100 126
0.226100 0.065622 0.163984 135 100 119
0.137371 0.056338 0.255375 134 100 120
-0.191175 -0.018235 0.038584 125 100 129
-0.201433 0.015994 -0.159291 129 100 125
-0.089237 0.096941 0.280548 139 100 115
0.207946 0.072071 0.032570 136 100 118
-0.427489 -0.761095 0.061607 30 100 224
-0.311084 0.465578 0.185849 186 100 68
-0.010740 -0.017087 -0.189874 125 100 129
-0.083124 0.510874 0.419177 192 100 62
0.153099 0.428461 -0.175477 182 100 72
-0.069751 0.370910 -0.275034 174 100 80
0.065021 0.028966 -0.140650 131 100 123
-0.200763 0.006992 -0.132495 128 100 126
-0.048148 -0.001179 0.186818 127 100 127
0.263633 0.040581 0.204279 132 100 122
0.108305 0.046755 0.236253 133 100 121
0.256624 0.048851 -0.020264 133 100 121
0.203932 0.040561 -0.029730 132 100 122
0.038898 0.071437 0.162729 136 100 118
-0.106666 -0.023540 0.174775 124 100 130
0.164832 0.048686 0.185557 133 100 121
-0.130117 0.096364 -0.287940 139 100 115
0.180165 0.023588 0.145213 130 100 124
-0.045707 0.025243 -0.031461 130 100 124
-0.225427 -0.506990 -0.214960 62 100 192
-0.126502 0.046167 0.016760 133 100 121
-0.125229 0.038686 0.143403 132 100 122
0.099889 0.003940 0.156466 128 100 126
0.217941 0.352967 -0.240113 172 100 82
-0.199053 0.046739 0.124919 133 100 121
0.254178 0.018653 -0.008261 129 100 125
-0.184416 0.058523 -0.040300 134 100 120
-0.277219 0.057854 0.077766 134 100 120
-0.103638 0.086649 -0.218212 138 100 116
-0.117432 0.063733 0.012110 135 100 119
0.014072 0.026499 0.305558 130 100 124
0.312344 0.036972 0.272359 132 100 122
-0.535291 -0.512479 -0.055805 62 100 192
0.117625 0.028115 0.036388 131 100 123
-0.156010 -0.027713 -0.369723 123 100 131
0.152328 0.044650 0.310835 133 100 121
-0.192947 0.024899 -0.029715 130 100 124
0.030340 0.020504 0.234901 130 100 124
0.051440 0.038939 -0.252934 132 100 122
0.229089 0.063139 0.203268 135 100 119
0.170033 0.000326 0.223053 127 100 127
-0.211486 0.041542 0.133833 132 100 122
0.144716 0.073813 -0.186786 136 100 118
-0.190745 0.100781 0.202413 140 100 114
-0.062050 0.062965 -0.121152 135 100 119
0.223426 -0.004075 -0.174569 126 100 128
-0.212509 0.108780 -0.354714 141 100 113
-0.215115 0.008182 -0.201921 128 100 126
0.009870 0.035256 -0.140783 131 100 123
-0.071675 -0.349063 0.458279 82 100 172
-0.143307 0.028530 0.175071 131 100 123
0.129539 0.081810 -0.144450 137 100 117
-0.122628 0.096672 -0.115154 139 100 115
-0.187022 0.027754 0.108834 131 100 123
0.292992 0.053692 0.082799 134 100 120
-0.269305 0.071195 -0.203291 136 100 118
-0.149190 0.070830 -0.236261 136 100 118
-0.083013 0.057716 -0.269736 134 100 120
0.133413 0.037926 0.005439 132 100 122
-0.094530 0.028236 -0.297772 131 100 123
0.123256 0.100552 -0.071762 140 100 114
-0.037849 -0.054647 0.114492 120 100 134
0.431103 0.707138 0.116929 217 100 37
-0.094481 0.082944 -0.301246 138 100 116
-0.124446 0.068559 0.122463 136 100 118
-0.240738 0.073698 -0.071007 136 100 118
0.126403 0.004867 0.161125 128 100 126
0.173773 -0.022626 0.029839 124 100 130
0.264689 0.061955 0.095113 135 100 119
-0.019388 0.037279 -0.068029 132 100 122
-0.084416 -0.030961 0.121845 123 100 131
-0.279180 0.057426 -0.010295 134 100 120
-0.146854 0.031555 -0.065795 131 100 123
0.004669 -0.016745 -0.229906 125 100 129
-0.138583 0.055340 0.023103 134 100 120
0.069867 -0.003593 0.208179 127 100 127
0.030301 0.012681 0.256411 129 100 125
-0.172333 0.010245 -0.184293 128 100 126
-0.108300 0.009609 0.481169 128 100 126
0.234594 0.044495 0.039245 133 100 121
-0.215202 0.010846 0.120109 128 100 126
-0.228022 0.004879 -0.200973 128 100 126
0.187762 0.003899 -0.073228 127 100 127
-0.271605 -0.033476 0.017260 123 100 131
-0.370368 -0.330490 0.186407 85 100 169
-0.324096 0.033509 0.116658 131 100 123
-0.157349 -0.016906 0.342225 125 100 129
-0.000165 0.078497 0.150357 137 100 117
-0.003833 -0.003432 0.014207 127 100 127
0.288252 0.018148 0.228918 129 100 125
0.179409 -0.021694 0.012451 124 100 130
-0.141013 -0.000085 0.126021 127 100 127
-0.083990 0.033174 -0.267597 131 100 123
0.120660 0.049451 0.039179 133 100 121
-0.137429 0.027018 0.163304 130 100 124
0.126106 0.067384 0.117469 136 100 118
0.189216 -0.009453 -0.141023 126 100 128
-0.188204 0.085257 0.337243 138 100 116
0.170404 0.085183 -0.091405 138 100 116
0.154811 0.045226 0.185251 133 100 121
-0.173888 0.045396 -0.096899 133 100 121
-0.038994 0.274131 -0.221212 162 100 92
-0.232876 0.048516 0.009733 133 100 121
-0.194290 -0.009270 -0.148196 126 100 128
0.119582 0.114160 0.296950 142 100 112
-0.103083 0.043708 -0.177968 133 100 121
0.004792 0.075206 0.209262 137 100 117
0.275525 -0.751930 0.248045 31 100 223
-0.272829 -0.535077 0.198707 59 100 195
-0.039393 0.060031 -0.291370 135 100 119
-0.053849 0.054565 -0.141621 134 100 120
0.173611 0.034567 0.028498 131 100 123
0.102694 0.052884 -0.013733 134 100 120
0.240265 0.083061 -0.228583 138 100 116
0.124184 0.588976 -0.243274 202 100 52
-0.140251 0.055614 0.223239 134 100 120
-0.101936 0.060078 0.113448 135 100 119
0.059025 0.062694 -0.145104 135 100 119
0.046361 0.029521 0.222186 131 100 123
-0.038656 0.048785 0.165663 133 100 121
0.021470 -0.021444 -0.271761 124 100 130
0.026537 -0.002210 0.230019 127 100 127
0.174519 0.016123 0.133194 129 100 125
0.068891 0.083886 -0.249039 138 100 116
0.026126 0.009749 -0.050325 128 100 126
0.287725 0.064238 0.067307 135 100 119
0.223168 0.001096 0.078738 127 100 127
-0.281143 0.014363 0.301841 129 100 125
-0.006884 -0.013903 -0.146446 125 100 129
-0.040617 0.033342 -0.195491 131 100 123
0.235026 -0.007173 0.113209 126 100 128
0.220255 0.072309 0.099772 136 100 118
-0.036682 0.004280 -0.296168 128 100 126
-0.152203 0.048438 -0.008380 133 100 121
-0.162752 -0.051710 -0.166452 120 100 134
-0.369664 0.049178 0.045094 133 100 121
0.042697 0.048333 -0.110426 133 100 121
0.230191 0.067188 0.015578 136 100 118
0.092979 0.021601 -0.347637 130 100 124
0.033412 0.012538 -0.195646 129 100 125
0.026093 0.215543 -0.343123 154 100 100
-0.060342 0.097112 0.016109 139 100 115
0.102712 0.063354 0.189352 135 100 119
0.099345 0.087090 -0.126972 138 100 116
-0.249288 0.000520 -0.122907 127 100 127
0.040155 0.028037 0.114998 131 100 123
0.129271 -0.024605 0.136105 124 100 130
0.084769 0.024418 -0.034069 130 100 124
0.176463 0.023022 0.016343 130 100 124
-0.260981 -0.042921 0.467570 122 100 132
0.059717 0.036822 -0.246256 132 100 122
-0.166096 0.088837 -0.093452 138 100 116
-0.041767 0.048652 -0.113710 133 100 121
0.182288 0.000333 -0.058916 127 100 127
0.138446 0.002266 0.031618 127 100 127
0.175909 -0.011964 0.105812 125 100 129
-0.204658 -0.010762 0.211867 126 100 128
-0.093334 0.066906 0.210728 136 100 118
-0.092608 -0.001036 -0.134308 127 100 127
-0.002541 0.031483 -0.273703 131 100 123
0.318121 -0.471232 0.469280 67 100 187
-0.173621 0.004790 0.022760 128 100 126
0.086009 0.016578 -0.112426 129 100 125
-0.024279 0.027901 -0.029766 131 100 123
-0.421356 -0.441210 0.310815 71 100 183
-0.166068 0.031573 0.020640 131 100 123
-0.262814 0.039532 0.133807 132 100 122
0.309829 0.036682 -0.002819 132 100 122
-0.250863 -0.019516 0.029720 125 100 129
0.417069 -0.078353 0.034267 117 100 137
0.233119 -0.014953 0.204708 125 100 129
0.210564 0.045790 -0.006123 133 100 121
0.171173 -0.008977 -0.164465 126 100 128
0.168820 -0.108235 0.408976 113 100 141
0.020346 0.025850 0.155916 130 100 124
-0.201981 0.024572 -0.107974 130 100 124
0.152647 0.031924 -0.265236 131 100 123
0.193603 0.081534 -0.007535 137 100 117
0.027935 0.014672 0.158806 129 100 125
0.133907 0.081729 0.278401 137 100 117
-0.237219 0.050549 -0.036195 133 100 121
0.093544 0.011241 0.263387 128 100 126
0.142607 0.057990 0.289804 134 100 120
0.134214 0.068656 0.143916 136 100 118
-0.104676 0.058278 -0.057844 134 100 120
0.199639 0.007027 -0.044273 128 100 126
0.495699 -0.121812 0.205010 111 100 143
0.248153 0.039349 -0.003211 132 100 122
-0.067485 0.067103 -0.113808 136 100 118
-0.066991 0.039445 -0.147698 132 100 122
-0.081333 0.021001 -0.151994 130 100 124
-0.216516 0.066148 -0.161579 135 100 119
0.203149 0.060411 0.094028 135 100 119
0.174222 -0.024800 0.031966 124 100 130
-0.140892 0.065606 0.124039 135 100 119
-0.194733 0.010709 -0.066979 128 100 126
-0.150946 0.053244 0.064454 134 100 120
0.002180 0.021564 0.273938 130 100 124
-0.192000 0.054696 0.119057 134 100 120
-0.035446 0.073298 0.214501 136 100 118
-0.176484 -0.003348 -0.175006 127 100 127
-0.179694 0.007496 0.153750 128 100 126
0.448211 -0.271292 -0.305051 92 100 162
-0.089121 0.064335 -0.029021 135 100 119
0.095341 -0.107108 0.573680 113 100 141
-0.179587 0.020013 -0.181237 130 100 124
0.319745 -0.477575 -0.383407 66 100 188
0.066133 0.064751 0.225613 135 100 119
-0.079208 0.095382 -0.336482 139 100 115
0.023444 -0.009102 -0.308645 126 100 128
-0.096530 0.051201 -0.010740 134 100 120
-0.269762 0.023969 -0.086909 130 100 124
0.155940 0.102187 0.110106 140 100 114
0.150666 0.069541 0.068910 136 100 118
-0.046328 0.015998 -0.223414 129 100 125
0.121441 0.065977 0.054065 135 100 119
0.030072 -0.017123 0.265246 125 100 129
-0.080034 0.039494 -0.155296 132 100 122
0.244210 0.058385 0.078935 134 100 120
0.085064 -0.009343 -0.141493 126 100 128
-0.142138 0.050501 -0.174030 133 100 121
0.025463 -0.002467 -0.361615 127 100 127
0.234387 0.053317 0.057804 134 100 120
0.183972 0.011270 0.161647 128 100 126
-0.225163 -0.060164 -0.247846 119 100 135
0.047240 0.048224 -0.064484 133 100 121
-0.017066 0.079265 -0.196577 137 100 117
0.072220 -0.020552 0.189132 124 100 130
0.053849 0.056897 0.194631 134 100 120
0.212685 0.000296 0.238356 127 100 127
0.049954 0.046185 0.287911 133 100 121
-0.002636 0.050823 -0.232796 133 100 121
