ply
format ascii 1.0
element vertex 1191
property float x
property float y
property float z
property uchar red
property uchar green
property uchar blue
end_header
0.067512 0.047220 0.220984 133 100 121
-0.026897 0.073464 0.268453 136 100 118
-0.133201 -0.001278 -0.200646 127 100 127
0.328470 -0.022368 -0.031716 124 100 130
0.129533 0.016918 -0.295760 129 100 125
0.239905 -0.532982 0.360826 59 100 195
-0.109346 0.032574 0.209571 131 100 123
-0.141257 -0.005722 0.062144 126 100 128
0.049558 0.022030 -0.120516 130 100 124
-0.209988 -0.006423 0.149757 126 100 128
0.199079 0.047561 0.099870 133 100 121
-0.122356 0.045855 0.162235 133 100 121
-0.046480 -0.442539 -0.597635 71 100 183
-0.433251 -0.050172 -0.310285 121 100 133
-0.102837 0.017024 0.248150 129 100 125
0.019113 0.022243 0.162436 130 100 124
-0.047827 0.015998 -0.282351 129 100 125
0.164895 0.058496 -0.092699 134 100 120
-0.350674 -0.160888 0.151441 106 100 148
0.127744 0.052304 -0.273622 134 100 120
-0.213510 0.013275 -0.071607 129 100 125
-0.323177 0.049302 0.088637 133 100 121
-0.062682 -0.053116 -0.230846 120 100 134
-0.218831 0.018855 0.042957 129 100 125
-0.198928 0.046751 -0.158337 133 100 121
-0.186654 0.043976 -0.153932 133 100 121
0.119602 0.041168 0.111341 132 100 122
0.180208 -0.019258 0.248421 125 100 129
0.199702 0.015561 -0.219431 129 100 125
0.151150 0.068733 -0.104785 136 100 118
0.020980 -0.019666 0.186144 124 100 130
-0.013733 0.021835 -0.192041 130 100 124
-0.041908 0.136458 0.460083 144 100 110
0.211437 -0.025035 -0.109921 124 100 130
-0.252894 0.050943 0.056865 133 100 121
0.018867 -0.016117 0.159112 125 100 129
-0.077924 0.029351 -0.257666 131 100 123
0.155811 -0.010792 0.028196 126 100 128
-0.349312 -0.708486 -0.279131 37 100 217
0.018089 0.072719 0.152450 136 100 118
-0.139077 0.055523 0.230728 134 100 120
0.125913 0.019007 -0.219393 129 100 125
-0.202265 0.014409 -0.076526 129 100 125
-0.210838 -0.010396 -0.018958 126 100 128
0.250913 0.011330 -0.025602 128 100 126
0.031965 0.063279 -0.246435 135 100 119
0.094266 0.034578 -0.134010 131 100 123
0.166658 0.034857 -0.102921 131 100 123
0.096836 0.057458 0.297273 134 100 120
0.034735 0.031571 0.197296 131 100 123
0.212379 -0.026517 -0.033766 124 100 130
0.006691 0.014049 -0.192390 129 100 125
-0.404331 -0.113713 -0.032701 113 100 141
0.184308 0.035262 0.008496 131 100 123
0.084296 0.052441 0.216399 134 100 120
0.207752 -0.007764 -0.026710 126 100 128
-0.019265 0.060109 0.197940 135 100 119
-0.038479 0.098459 0.254671 140 100 114
0.018338 0.006537 -0.223342 128 100 126
0.143327 -0.004653 0.246231 126 100 128
-0.068026 0.063539 -0.207071 135 100 119
-0.068406 0.080379 -0.185211 137 100 117
0.117377 0.051460 0.070286 134 100 120
0.008004 0.063207 -0.231978 135 100 119
0.027061 0.777909 -0.356611 226 100 28
0.360360 0.144585 -0.031058 145 100 109
-0.220618 0.057856 -0.112478 134 100 120
-0.051430 0.013861 0.275447 129 100 125
0.050080 -0.000568 0.275558 127 100 127
-0.147367 0.012077 0.049048 129 100 125
0.052629 0.055810 0.260462 134 100 120
-0.036006 0.046389 0.154776 133 100 121
0.152361 0.033095 0.227870 131 100 123
0.113575 0.014221 0.457471 129 100 125
0.342239 -0.424502 0.222762 73 100 181
-0.177479 0.044707 -0.142995 133 100 121
0.206815 0.024699 0.267181 130 100 124
0.406174 -0.155835 -0.286130 107 100 147
0.204149 0.025418 -0.094140 130 100 124
0.056871 0.001866 0.338121 127 100 127
0.178599 0.060881 -0.131176 135 100 119
0.185272 0.036461 -0.173390 132 100 122
-0.259507 0.035745 -0.177744 132 100 122
-0.111316 0.051503 -0.257814 134 100 120
-0.239636 -0.052040 -0.153860 120 100 134
-0.031515 0.022432 -0.290651 130 100 124
-0.029725 0.008883 -0.316867 128 100 126
0.143785 -0.029889 -0.099323 123 100 131
0.190274 -0.018407 0.226640 125 100 129
-0.108333 0.021430 0.185821 130 100 124
-0.169876 0.064740 0.111494 135 100 119
0.258233 0.048474 0.186136 133 100 121
0.258204 0.011229 0.089375 128 100 126
-0.010785 0.074960 0.220145 137 100 117
0.330355 0.188313 0.208322 151 100 103
0.162724 0.006191 -0.176684 128 100 126
0.016050 0.044490 -0.001969 133 100 121
0.222050 0.033611 -0.085925 131 100 123
-0.464432 -0.230294 0.286113 98 100 156
0.235199 0.064744 0.017705 135 100 119
-0.158620 0.040487 0.217028 132 100 122
0.111398 -0.004126 -0.429254 126 100 128
0.108614 0.003645 0.179259 127 100 127
0.262394 0.096424 0.111212 139 100 115
0.009588 0.027844 0.099826 131 100 123
-0.148257 0.045923 0.180783 133 100 121
-0.300930 -0.009277 0.032197 126 100 128
0.233479 0.063291 -0.051857 135 100 119
0.278789 0.069895 -0.345610 136 100 118
-0.115665 0.033675 0.139036 131 100 123
0.366180 0.120151 -0.200243 142 100 112
0.022521 0.040007 -0.170928 132 100 122
0.211106 0.091512 -0.247504 139 100 115
0.149688 0.092641 -0.129226 139 100 115
-0.245280 0.064030 -0.027180 135 100 119
0.111040 -0.019876 -0.313101 124 100 130
-0.176118 0.041769 -0.069272 132 100 122
-0.045593 0.053688 0.276033 134 100 120
-0.137991 0.048403 0.113992 133 100 121
-0.140485 0.031818 -0.217845 131 100 123
0.166154 0.052380 0.161417 134 100 120
-0.058631 0.032218 -0.120953 131 100 123
0.067841 0.037409 0.285193 132 100 122
-0.232613 0.037437 0.056869 132 100 122
0.305427 0.060925 0.087933 135 100 119
-0.123144 0.104813 0.030024 140 100 114
0.020440 0.084973 -0.269017 138 100 116
0.181116 0.075853 0.168786 137 100 117
-0.071031 0.111092 -0.167235 141 100 113
-0.072669 0.049091 0.237765 133 100 121
-0.264563 0.023884 0.089119 130 100 124
0.122499 0.071753 -0.107061 136 100 118
0.372050 -0.440965 -0.372310 71 100 183
0.156592 0.059402 0.293119 135 100 119
-0.116313 0.303985 0.314691 166 100 88
-0.055924 0.043308 -0.113350 133 100 121
-0.141209 0.027971 0.064024 131 100 123
0.113196 0.022062 0.247764 130 100 124
-0.041064 0.047409 0.094753 133 100 121
0.207691 0.052162 0.020986 134 100 120
-0.063307 0.030597 -0.078416 131 100 123
-0.057192 -0.017833 -0.405385 125 100 129
0.244109 0.152007 0.422999 146 100 108
0.159668 0.036806 -0.236708 132 100 122
-0.037255 0.080318 0.284824 137 100 117
-0.224389 -0.040495 -0.035774 122 100 132
-0.348117 -0.346825 0.462832 83 100 171
0.243765 0.064172 -0.129555 135 100 119
0.188195 0.028106 0.012491 131 100 123
-0.130207 0.042839 -0.214286 132 100 122
0.043058 0.003094 -0.018123 127 100 127
0.084192 0.056847 -0.249619 134 100 120
-0.188978 -0.003742 0.173358 127 100 127
-0.085939 0.004268 0.019181 128 100 126
-0.027538 0.061187 -0.244849 135 100 119
-0.351742 0.009852 -0.001234 128 100 126
-0.302714 -0.029428 0.068015 123 100 131
-0.162205 0.027566 0.044848 131 100 123
-0.030098 0.010144 -0.155821 128 100 126
0.169564 0.050679 0.172978 133 100 121
-0.219825 0.070028 -0.056101 136 100 118
-0.175845 0.033451 -0.002522 131 100 123
-0.188910 0.040914 0.053580 132 100 122
0.003159 0.016979 0.173125 129 100 125
-0.172053 0.029824 -0.211706 131 100 123
-0.236765 0.008921 0.036325 128 100 126
0.186909 0.403552 0.159102 178 100 76
-0.224246 0.074390 -0.018583 136 100 118
0.107072 0.064740 -0.278516 135 100 119
-0.439731 0.074859 0.135943 137 100 117
0.215472 -0.121380 -0.448909 112 100 142
-0.386059 -0.472635 -0.069765 67 100 187
0.101012 0.083306 0.216906 138 100 116
0.017706 0.034470 -0.124182 131 100 123
-0.097241 0.018491 0.330575 129 100 125
0.036910 0.077165 -0.238673 137 100 117
-0.012229 0.039852 -0.244693 132 100 122
-0.171060 0.013525 0.017560 129 100 125
-0.038902 0.010945 0.146439 128 100 126
0.322139 0.006998 -0.014459 128 100 126
-0.072907 -0.482590 -0.421821 65 100 189
0.181418 0.082699 0.000349 138 100 116
-0.152823 0.021200 0.102539 130 100 124
0.126003 0.014282 -0.192361 129 100 125
0.067887 0.065627 -0.009535 135 100 119
0.063174 0.118157 -0.288865 142 100 112
-0.073340 0.019487 0.071331 129 100 125
0.059178 -0.030753 0.280500 123 100 131
0.125397 0.009004 -0.185900 128 100 126
0.094017 0.019078 0.224331 129 100 125
0.078870 0.018858 -0.335962 129 100 125
-0.241627 0.035372 -0.109611 132 100 122
0.104616 0.061158 -0.142008 135 100 119
-0.245417 0.048026 -0.054516 133 100 121
-0.136229 0.001214 0.124117 127 100 127
-0.079776 0.103328 -0.252292 140 100 114
-0.113696 0.034627 0.085169 131 100 123
0.019234 0.026488 -0.041576 130 100 124
-0.186164 0.007103 0.221868 128 100 126
-0.180633 0.104214 -0.132624 140 100 114
-0.066239 0.048750 0.088798 133 100 121
-0.188200 0.046468 -0.156720 133 100 121
-0.093122 0.040947 0.175369 132 100 122
0.178967 -0.009491 -0.090330 126 100 128
-0.182372 0.032732 0.093221 131 100 123
-0.199384 0.066725 -0.157887 136 100 118
-0.389565 0.017364 0.034302 129 100 125
-0.193354 -0.046475 -0.151224 121 100 133
0.275702 -0.161532 0.395095 106 100 148
-0.257725 0.022123 0.011575 130 100 124
-0.186228 0.054161 -0.027738 134 100 120
0.122687 0.049091 -0.098464 133 100 121
0.161152 0.501547 -0.386154 191 100 63
-0.230261 -0.004587 -0.058043 126 100 128
-0.226142 0.060792 -0.108395 135 100 119
0.126648 0.108684 -0.094730 141 100 113
-0.071784 0.005296 -0.225538 128 100 126
-0.079742 0.012781 0.220714 129 100 125
-0.204278 -0.013389 0.010583 125 100 129
0.209060 0.093611 0.220765 139 100 115
-0.217240 0.047947 0.106415 133 100 121
0.005233 -0.007582 0.235575 126 100 128
0.052593 0.055382 0.226636 134 100 120
-0.035163 -0.004181 -0.037879 126 100 128
-0.358149 0.034439 -0.066329 131 100 123
0.194755 0.062014 0.254399 135 100 119
0.237252 0.052445 -0.036476 134 100 120
-0.126985 0.038386 -0.057912 132 100 122
0.143562 0.037443 -0.046080 132 100 122
-0.252415 -0.020520 -0.066977 124 100 130
0.043485 0.055266 0.193215 134 100 120
-0.230142 0.078827 -0.192299 137 100 117
-0.221965 0.080662 -0.079620 137 100 117
-0.106964 0.029321 -0.105566 131 100 123
0.125111 0.042155 -0.130725 132 100 122
-0.243383 0.796853 -0.210846 229 100 25
-0.011438 0.037159 0.129670 132 100 122
-0.138216 -0.021811 0.022195 124 100 130
0.063324 0.072862 -0.208837 136 100 118
-0.186046 -0.011871 -0.095736 125 100 129
-0.178855 0.014640 0.127789 129 100 125
-0.148740 0.038002 -0.130115 132 100 122
-0.185756 0.028486 -0.235829 131 100 123
0.143413 0.074454 0.178449 136 100 118
-0.084146 0.027877 0.176272 131 100 123
-0.376846 0.031090 0.076878 131 100 123
-0.199119 0.007052 -0.012169 128 100 126
0.098121 0.081108 -0.192436 137 100 117
-0.166937 0.018392 -0.093797 129 100 125
0.154824 0.058995 0.125713 135 100 119
0.140079 0.006377 0.137305 128 100 126
-0.300224 0.146903 -0.062481 146 100 108
0.165955 0.098672 -0.123768 140 100 114
0.157823 0.002282 0.134547 127 100 127
0.109050 0.047016 0.036254 133 100 121
0.202104 0.131651 0.087776 144 100 110
-0.202269 0.018690 -0.193477 129 100 125
0.108086 0.030206 -0.229306 131 100 123
-0.191672 0.067092 -0.074127 136 100 118
-0.111127 0.103494 0.095271 140 100 114
-0.095030 0.066159 -0.241167 135 100 119
0.034246 -0.002257 -0.108713 127 100 127
-0.123502 0.033052 0.005263 131 100 123
-0.037575 0.074588 0.313207 137 100 117
0.461018 -0.379419 0.086993 79 100 175
0.107843 0.051786 0.110928 134 100 120
-0.245627 -0.017283 0.164822 125 100 129
-0.268374 0.086163 -0.214716 138 100 116
-0.015515 0.036249 -0.243766 132 100 122
0.179939 0.053604 0.088838 134 100 120
0.004263 0.134055 -0.240045 144 100 110
0.027256 0.069119 0.310061 136 100 118
0.080633 -0.422851 0.575704 73 100 181
0.217650 0.025010 0.031686 130 100 124
-0.146041 0.051443 0.259722 134 100 120
-0.161797 0.005785 -0.488226 128 100 126
0.174182 0.076373 0.113341 137 100 117
-0.257064 0.086308 0.040439 138 100 116
-0.454970 -0.052697 0.224972 120 100 134
0.367688 -0.522056 0.052294 60 100 194
0.198502 0.052355 0.183940 134 100 120
-0.113381 0.089643 0.107535 138 100 116
0.069637 0.051747 -0.156894 134 100 120
-0.034887 0.006897 0.243798 128 100 126
-0.182706 0.228078 -0.363974 156 100 98
-0.100026 0.016746 -0.190791 129 100 125
0.171177 0.021345 0.021918 130 100 124
0.031112 0.036312 0.180614 132 100 122
-0.032721 0.052485 -0.233398 134 100 120
0.386750 -0.630902 0.342574 47 100 207
-0.276382 0.023990 0.051884 130 100 124
0.281373 0.085913 0.174663 138 100 116
0.023113 0.029240 -0.201563 131 100 123
0.274336 0.023850 -0.012223 130 100 124
-0.068295 -0.003093 0.183132 127 100 127
-0.132315 0.057345 -0.206703 134 100 120
-0.208945 0.011506 -0.061966 128 100 126
0.185095 0.038906 0.094444 132 100 122
-0.171810 0.031294 -0.217651 131 100 123
0.028291 0.045047 -0.163612 133 100 121
0.460737 -0.033550 -0.078412 123 100 131
-0.164665 0.061543 -0.100961 135 100 119
-0.128088 0.039634 0.158323 132 100 122
-0.076409 0.047669 0.048870 133 100 121
-0.120010 0.029178 -0.224887 131 100 123
0.254246 0.003861 -0.017173 127 100 127
0.024333 0.030958 -0.232859 131 100 123
-0.094977 0.036381 -0.224397 132 100 122
-0.165058 -0.026868 -0.121802 124 100 130
-0.245757 0.060720 0.176896 135 100 119
-0.268718 0.025402 0.064466 130 100 124
-0.086549 0.016787 0.220497 129 100 125
-0.252695 0.184794 -0.357050 151 100 103
-0.031018 0.097162 -0.164563 139 100 115
0.079436 0.007075 -0.118388 128 100 126
-0.271930 0.030395 0.163318 131 100 123
-0.252445 -0.060781 -0.077063 119 100 135
0.136586 0.006634 0.206568 128 100 126
-0.184014 -0.000751 0.158640 127 100 127
-0.121324 0.029980 0.159398 131 100 123
-0.273958 0.033267 -0.115239 131 100 123
0.327223 -0.012185 -0.381600 125 100 129
0.097111 0.099704 -0.281290 140 100 114
-0.260421 0.071596 0.073803 136 100 118
0.030783 0.074100 0.197770 136 100 118
0.177816 0.053344 -0.031413 134 100 120
0.365504 -0.095675 0.114864 115 100 139
0.439854 -0.065957 -0.258921 119 100 135
0.362764 -0.036134 -0.202319 122 100 132
0.167433 0.103704 -0.124551 140 100 114
-0.126204 -0.062152 -0.275251 119 100 135
-0.294483 0.024250 0.144439 130 100 124
-0.147581 0.065423 -0.182661 135 100 119
-0.047342 0.033431 -0.228961 131 100 123
0.211837 0.004780 0.040876 128 100 126
0.064027 0.018564 0.244514 129 100 125
-0.093060 -0.019806 0.190809 124 100 130
-0.169330 0.033473 0.177084 131 100 123
0.360261 0.144055 -0.032387 145 100 109
-0.230666 0.075666 -0.203344 137 100 117
-0.054319 -0.002466 -0.262404 127 100 127
0.198645 0.075855 -0.314818 137 100 117
0.111150 0.151593 0.161633 146 100 108
-0.232495 -0.020695 -0.127281 124 100 130
0.067659 0.095509 -0.310991 139 100 115
-0.079147 0.062791 0.303894 135 100 119
0.208756 -0.399564 0.481422 76 100 178
0.078467 0.052069 -0.056864 134 100 120
-0.221265 0.029651 0.178777 131 100 123
-0.062468 -0.002746 0.007381 127 100 127
-0.178275 0.030909 0.293558 131 100 123
-0.200426 0.047626 -0.020039 133 100 121
-0.080289 0.042581 0.267000 132 100 122
0.213953 0.024204 -0.030521 130 100 124
-0.279150 -0.028554 0.299341 123 100 131
0.208149 0.043986 0.215227 133 100 121
0.107398 0.048480 -0.006623 133 100 121
0.278485 0.081846 -0.288057 137 100 117
-0.218814 0.060820 0.011684 135 100 119
0.496840 -0.610943 -0.131659 49 100 205
0.072706 0.056322 0.167618 134 100 120
-0.248010 0.026427 0.022378 130 100 124
-0.176414 -0.012865 -0.208495 125 100 129
-0.024297 -0.019000 0.295581 125 100 129
-0.041460 0.042016 0.185459 132 100 122
0.311820 0.185890 -0.172289 151 100 103
0.247419 0.028581 0.033977 131 100 123
0.071007 -0.038678 0.160771 122 100 132
0.356400 0.249294 0.035604 159 100 95
0.155051 0.013350 0.020494 129 100 125
0.217024 -0.042513 0.017956 122 100 132
-0.278908 0.030912 -0.180347 131 100 123
0.273597 0.098356 -0.008677 140 100 114
0.044729 0.014717 0.328285 129 100 125
0.085724 0.089110 -0.104780 138 100 116
0.118183 0.056517 0.305940 134 100 120
0.377130 0.008484 0.125045 128 100 126
0.204434 0.053130 -0.021830 134 100 120
0.066757 0.010540 0.004793 128 100 126
0.122220 0.047371 -0.144153 133 100 121
0.176047 0.055628 -0.139653 134 100 120
-0.026222 0.110612 0.221223 141 100 113
-0.217915 0.059865 -0.112533 135 100 119
-0.247950 0.037126 -0.086286 132 100 122
0.175640 0.014724 0.410956 129 100 125
0.199703 0.019753 -0.219669 130 100 124
-0.172497 0.049022 0.200281 133 100 121
-0.258047 0.055451 -0.084211 134 100 120
-0.215259 0.076985 -0.115304 137 100 117
0.173124 -0.036640 0.300289 122 100 132
0.211435 0.039810 0.010307 132 100 122
0.092112 0.066700 0.249985 136 100 118
-0.042449 0.031540 -0.197465 131 100 123
-0.040587 0.021293 -0.168250 130 100 124
-0.219091 0.038436 0.252820 132 100 122
0.111461 0.024656 -0.223377 130 100 124
-0.223710 0.022070 0.058213 130 100 124
-0.169578 0.047328 0.135857 133 100 121
0.207572 0.108819 0.064529 141 100 113
-0.231079 -0.017357 -0.114976 125 100 129
0.035909 0.019499 0.281977 129 100 125
0.232568 0.037464 -0.100539 132 100 122
-0.343647 -0.411086 -0.296554 75 100 179
0.029162 0.102087 -0.314490 140 100 114
0.003445 -0.093424 0.394999 115 100 139
0.162549 0.074534 0.046934 137 100 117
-0.278124 0.010457 -0.144022 128 100 126
-0.104786 0.051773 -0.132792 134 100 120
-0.061515 0.066876 0.330034 136 100 118
0.252774 0.042436 0.133414 132 100 122
-0.181959 0.027559 -0.140242 131 100 123
-0.070630 0.021987 -0.145039 130 100 124
0.010435 -0.087740 0.415351 116 100 138
0.077221 0.059022 0.264385 135 100 119
0.101252 0.027107 0.138199 130 100 124
-0.246949 0.017323 0.043120 129 100 125
-0.261522 0.019101 0.253135 129 100 125
-0.298929 0.021796 -0.034350 130 100 124
-0.087515 0.008122 0.213762 128 100 126
-0.247665 0.023225 0.168918 130 100 124
0.092228 0.055531 -0.391176 134 100 120
0.238670 0.747551 -0.192332 222 100 32
-0.085941 0.073997 0.245083 136 100 118
0.236705 0.036694 0.037066 132 100 122
0.098206 0.042517 -0.177253 132 100 122
0.225432 0.229518 -0.300404 156 100 98
0.150151 0.088141 -0.083418 138 100 116
-0.092133 -0.000452 0.191463 127 100 127
-0.392944 -0.271838 -0.454901 92 100 162
-0.055067 0.028396 0.269100 131 100 123
-0.141884 0.021791 0.052869 130 100 124
0.240259 0.028206 0.203423 131 100 123
-0.221862 0.059531 0.003195 135 100 119
0.290852 0.475107 0.365146 188 100 66
-0.156673 -0.013933 0.006089 125 100 129
-0.296198 0.017434 0.175239 129 100 125
0.242629 0.023508 0.157719 130 100 124
0.131510 0.066946 -0.159103 136 100 118
0.230454 0.074014 0.222289 136 100 118
-0.180315 0.064567 -0.183286 135 100 119
0.374695 -0.695559 0.136618 38 100 216
0.170087 -0.013431 0.091594 125 100 129
0.161891 0.002960 0.276629 127 100 127
-0.246443 -0.010669 -0.082639 126 100 128
-0.014610 0.010348 0.268062 128 100 126
-0.032348 0.039741 0.166101 132 100 122
0.066565 0.070277 -0.251768 136 100 118
0.517135 -0.161141 0.081892 106 100 148
-0.128957 0.073580 -0.199267 136 100 118
0.308712 0.579699 0.224300 201 100 53
-0.199656 -0.004223 0.114288 126 100 128
-0.054710 0.007750 -0.232160 128 100 126
-0.124198 0.043954 -0.228738 133 100 121
0.145051 0.021929 -0.091027 130 100 124
0.176411 -0.030799 -0.316042 123 100 131
0.076473 0.030816 -0.285203 131 100 123
0.307270 0.034204 0.023790 131 100 123
-0.224353 0.008479 -0.157461 128 100 126
0.227625 0.038111 -0.047028 132 100 122
0.109462 -0.001502 -0.323934 127 100 127
-0.004370 0.007573 -0.305223 128 100 126
-0.206630 0.010382 -0.180125 128 100 126
-0.240685 0.040043 0.189048 132 100 122
-0.184752 0.087899 0.152535 138 100 116
-0.420546 -0.070215 -0.294447 118 100 136
-0.020092 0.127203 -0.246501 143 100 111
0.292067 0.046564 0.034720 133 100 121
0.051688 -0.011620 0.200705 126 100 128
-0.116167 0.035555 -0.045911 132 100 122
-0.184543 0.155048 0.345951 147 100 107
0.220176 0.026181 -0.013438 130 100 124
-0.078322 0.010305 0.175646 128 100 126
0.085265 0.041019 -0.185018 132 100 122
-0.064986 0.030458 -0.078443 131 100 123
0.154075 -0.024556 -0.131593 124 100 130
-0.223117 0.081852 0.118878 137 100 117
-0.129738 0.061809 -0.386116 135 100 119
0.146423 0.037162 -0.043797 132 100 122
-0.248887 0.007938 -0.158689 128 100 126
0.220470 0.059222 -0.025879 135 100 119
0.019797 0.083238 0.255796 138 100 116
0.210045 0.027022 0.087303 130 100 124
-0.249854 0.052117 -0.083812 134 100 120
-0.227908 0.121757 -0.248498 143 100 111
0.065932 0.086923 0.227524 138 100 116
-0.122216 -0.027843 -0.170861 123 100 131
-0.053347 0.045524 0.174170 133 100 121
-0.204681 0.057330 -0.154250 134 100 120
0.255065 0.033573 0.206984 131 100 123
0.155076 0.071968 -0.256842 136 100 118
0.182614 0.045112 0.232946 133 100 121
-0.177553 0.079098 -0.290645 137 100 117
-0.575185 -0.073364 -0.106656 118 100 136
-0.456434 -0.395569 0.170613 77 100 177
-0.121099 0.025186 0.149023 130 100 124
-0.137995 -0.073298 0.111235 118 100 136
0.289333 0.044207 0.002105 133 100 121
0.037073 0.074990 -0.272860 137 100 117
-0.356911 0.209853 -0.111980 154 100 100
0.415175 -0.450601 -0.080117 70 100 184
0.063325 0.635566 0.346285 208 100 46
0.065717 0.057094 0.290653 134 100 120
-0.045667 0.061845 -0.217566 135 100 119
-0.229537 0.073931 0.163386 136 100 118
-0.220313 -0.034562 0.067953 123 100 131
-0.048031 0.036791 -0.074403 132 100 122
0.163853 0.007137 0.160238 128 100 126
-0.036238 0.024965 -0.210906 130 100 124
-0.197959 -0.031068 0.077984 123 100 131
-0.062058 0.030853 -0.225392 131 100 123
0.189469 0.093326 -0.084368 139 100 115
0.255303 0.059138 0.110643 135 100 119
0.025963 0.040786 -0.058113 132 100 122
-0.201637 -0.019947 0.175587 124 100 130
-0.456983 -0.776651 0.300305 28 100 226
-0.282105 0.032394 -0.063693 131 100 123
0.147497 -0.008319 -0.070388 126 100 128
0.005621 0.038629 -0.307558 132 100 122
-0.171804 0.076336 -0.106490 137 100 117
-0.221824 0.038058 -0.132322 132 100 122
0.192111 0.044787 0.060673 133 100 121
-0.255836 0.081661 -0.104494 137 100 117
-0.222437 0.025990 0.184435 130 100 124
0.107288 0.040865 0.262911 132 100 122
0.174879 0.065775 0.118922 135 100 119
0.069187 0.065898 -0.326854 135 100 119
0.205857 0.033691 -0.068400 131 100 123
-0.202837 -0.000960 0.171159 127 100 127
-0.190231 0.061917 -0.300097 135 100 119
0.295030 -0.021402 -0.014425 124 100 130
-0.252428 0.043258 0.114708 133 100 121
0.206977 0.027587 0.291126 131 100 123
0.199966 0.034016 -0.175000 131 100 123
0.041979 -0.008784 0.281873 126 100 128
-0.036539 0.027325 -0.148062 130 100 124
-0.315741 -0.034851 0.279505 123 100 131
0.081206 0.036318 -0.207067 132 100 122
-0.127403 0.074478 -0.254361 136 100 118
-0.237809 0.046084 -0.204664 133 100 121
0.179437 -0.046226 -0.051858 121 100 133
0.231941 0.093129 -0.044055 139 100 115
-0.124364 -0.013078 0.259791 125 100 129
-0.208127 0.028822 -0.156221 131 100 123
0.157132 0.008542 -0.176158 128 100 126
-0.177061 0.004945 -0.087472 128 100 126
0.039779 0.004753 0.037226 128 100 126
-0.013516 -0.030040 -0.255391 123 100 131
0.182597 0.064980 -0.027755 135 100 119
-0.166466 0.070315 -0.204191 136 100 118
0.204838 0.034990 0.047516 131 100 123
0.065750 0.058095 -0.262229 134 100 120
0.086216 0.088120 0.232682 138 100 116
-0.007520 0.037343 0.149178 132 100 122
0.151959 0.141823 -0.035182 145 100 109
0.042085 0.023651 0.040128 130 100 124
-0.123606 -0.017673 0.045069 125 100 129
0.193600 0.629426 -0.184365 207 100 47
0.194104 -0.004503 -0.021086 126 100 128
-0.118623 0.042756 0.170910 132 100 122
-0.187794 0.077713 -0.174816 137 100 117
-0.517527 -0.333073 -0.102909 85 100 169
-0.100690 0.023967 -0.149180 130 100 124
0.061811 0.016530 0.177728 129 100 125
0.209349 0.072616 0.061144 136 100 118
-0.157315 0.022797 -0.065641 130 100 124
0.190105 0.037291 -0.173905 132 100 122
0.085835 0.045485 -0.260625 133 100 121
0.064223 0.039929 0.181567 132 100 122
0.172412 -0.006072 0.219203 126 100 128
-0.143440 0.024109 0.061212 130 100 124
0.394743 -0.735225 -0.410593 33 100 221
0.028305 0.057793 0.073620 134 100 120
-0.131692 0.081902 -0.187563 137 100 117
0.021705 -0.027690 -0.013613 123 100 131
0.094071 0.065110 0.167171 135 100 119
-0.167963 0.015281 0.055484 129 100 125
-0.180456 0.057986 -0.018208 134 100 120
0.273870 0.083151 0.031042 138 100 116
-0.087424 0.083722 0.151603 138 100 116
0.149355 0.041446 0.136313 132 100 122
-0.041582 -0.005794 -0.229795 126 100 128
0.162088 0.079539 -0.097308 137 100 117
0.031853 0.022147 -0.254913 130 100 124
0.040924 0.045657 -0.076177 133 100 121
0.043474 0.046775 0.176347 133 100 121
0.172457 0.109639 -0.081961 141 100 113
0.070503 0.065789 0.372825 135 100 119
0.093155 0.026444 0.140089 130 100 124
0.115075 0.053151 -0.130864 134 100 120
-0.059120 0.013227 0.157156 129 100 125
0.158289 -0.003280 0.200778 127 100 127
-0.141755 0.025625 -0.110380 130 100 124
0.193072 0.026426 0.248829 130 100 124
0.243643 0.028153 -0.133505 131 100 123
0.218773 0.036085 -0.018132 132 100 122
0.128469 -0.002655 -0.084079 127 100 127
0.058698 0.046996 0.237768 133 100 121
-0.161653 -0.045166 0.171912 121 100 133
0.071691 0.043869 -0.239988 133 100 121
-0.122134 0.008860 0.254855 128 100 126
-0.235854 0.018101 0.014043 129 100 125
0.048939 0.002914 -0.063624 127 100 127
-0.116804 0.035499 0.067249 132 100 122
0.182103 0.044377 -0.006222 133 100 121
0.151082 -0.004173 0.151803 126 100 128
-0.186241 0.027113 0.132032 130 100 124
0.248561 -0.038680 0.238348 122 100 132
0.279113 0.124942 -0.121213 143 100 111
0.056390 0.032052 0.035748 131 100 123
0.105462 -0.612009 0.590637 49 100 205
0.140922 0.016149 -0.217155 129 100 125
-0.160418 0.006713 -0.008272 128 100 126
0.219257 0.061185 -0.208772 135 100 119
-0.133412 -0.007679 0.015729 126 100 128
0.155060 0.055704 -0.044665 134 100 120
-0.266573 -0.359953 -0.349313 81 100 173
0.158075 0.009740 -0.026198 128 100 126
-0.155775 0.006251 -0.049436 128 100 126
-0.201776 -0.006776 0.059107 126 100 128
-0.184348 0.042610 0.260228 132 100 122
0.123492 0.090610 0.195502 139 100 115
0.021519 0.078598 0.159952 137 100 117
-0.173287 0.002771 -0.068453 127 100 127
-0.242011 0.050505 -0.143631 133 100 121
-0.277705 0.019917 0.117474 130 100 124
-0.175305 0.029755 0.020629 131 100 123
-0.071138 0.061022 0.195982 135 100 119
-0.082550 0.027391 -0.199567 130 100 124
0.034648 -0.029586 -0.299066 123 100 131
-0.000768 0.051724 -0.227250 134 100 120
-0.152268 0.020095 -0.065180 130 100 124
-0.157930 0.009410 -0.056565 128 100 126
-0.282196 0.062735 0.011070 135 100 119
-0.288247 0.270867 -0.319582 162 100 92
-0.067013 0.067867 0.270894 136 100 118
0.057326 0.062225 0.171413 135 100 119
-0.172925 0.057879 -0.186511 134 100 120
-0.266394 0.041139 -0.078972 132 100 122
-0.126636 -0.001736 0.081967 127 100 127
-0.337925 0.528209 -0.064395 194 100 60
-0.210512 0.055904 0.086891 134 100 120
-0.242903 0.019370 0.107206 129 100 125
-0.049939 0.030992 -0.051279 131 100 123
-0.094600 0.028178 0.076600 131 100 123
0.179971 0.014131 -0.183417 129 100 125
0.173518 0.026503 -0.077673 130 100 124
-0.145694 0.061976 0.164676 135 100 119
-0.025531 -0.050121 -0.187325 121 100 133
-0.169006 0.108274 0.057858 141 100 113
-0.250000 0.012955 -0.051740 129 100 125
0.233120 0.059801 -0.146510 135 100 119
-0.242947 0.071041 -0.045388 136 100 118
0.320417 -0.778855 0.431998 28 100 226
0.241684 0.017268 -0.280210 129 100 125
0.111908 0.048211 0.249942 133 100 121
0.027340 -0.011592 0.255883 126 100 128
-0.003456 -0.010502 0.266044 126 100 128
0.033199 0.025899 -0.263428 130 100 124
-0.020658 -0.005107 0.231884 126 100 128
0.147815 0.115527 -0.139214 142 100 112
0.066571 0.036155 0.200078 132 100 122
-0.066766 0.035705 -0.273596 132 100 122
0.207401 0.022677 0.009848 130 100 124
-0.259159 -0.004054 -0.033501 126 100 128
0.134736 0.074348 0.187604 136 100 118
0.003873 0.082182 0.177712 137 100 117
0.066528 0.113559 -0.202235 141 100 113
-0.070322 0.046859 -0.237513 133 100 121
0.199507 0.056380 -0.117263 134 100 120
-0.112485 0.024165 -0.248804 130 100 124
0.180800 0.082726 0.156117 138 100 116
0.207277 0.056762 0.227256 134 100 120
0.200529 0.012971 0.027659 129 100 125
-0.161748 0.034743 0.242053 131 100 123
0.122786 0.028929 0.256691 131 100 123
0.251919 -0.387369 -0.321810 78 100 176
-0.234549 0.015185 -0.104882 129 100 125
-0.018688 -0.006524 -0.210408 126 100 128
-0.275773 0.056546 0.046552 134 100 120
-0.089070 0.007188 0.023881 128 100 126
-0.254043 0.093265 0.006399 139 100 115
-0.126005 0.045645 -0.195491 133 100 121
0.244653 0.077243 0.026567 137 100 117
-0.159742 0.068095 -0.099438 136 100 118
-0.086411 0.017053 0.196647 129 100 125
-0.019011 0.033512 0.140857 131 100 123
-0.139602 0.043682 0.118840 133 100 121
0.228194 0.046302 -0.000711 133 100 121
0.179504 0.003012 -0.095879 127 100 127
0.190140 0.031971 -0.090018 131 100 123
-0.189278 0.026198 0.210712 130 100 124
0.177824 0.063760 0.157782 135 100 119
0.183828 0.024282 0.028639 130 100 124
-0.433644 -0.343274 0.222564 83 100 171
0.107084 0.085525 -0.158611 138 100 116
-0.101672 0.077365 -0.163693 137 100 117
0.106817 0.041079 -0.192191 132 100 122
-0.317043 0.019759 -0.089248 130 100 124
0.127195 0.044316 0.132045 133 100 121
-0.252644 0.022653 0.005001 130 100 124
-0.177571 -0.035704 0.016855 122 100 132
-0.107112 -0.004567 0.126188 126 100 128
0.137300 0.037468 -0.120135 132 100 122
-0.184822 0.064712 0.275531 135 100 119
-0.227157 -0.036912 0.290976 122 100 132
-0.184798 0.002065 -0.004268 127 100 127
-0.060796 0.063198 -0.168560 135 100 119
-0.195556 0.034632 -0.105418 131 100 123
0.156617 0.083376 0.274290 138 100 116
-0.152714 0.034550 0.040963 131 100 123
-0.017379 0.072155 0.167835 136 100 118
-0.036563 -0.003591 -0.145386 127 100 127
0.061806 0.041432 0.022835 132 100 122
-0.112322 0.010468 -0.346797 128 100 126
0.065277 0.034235 0.245687 131 100 123
-0.241916 -0.002549 -0.075405 127 100 127
0.229439 0.072561 0.194053 136 100 118
-0.139912 0.049460 0.182966 133 100 121
-0.160380 0.055515 -0.102016 134 100 120
-0.237745 0.063773 0.242267 135 100 119
-0.222001 0.039599 -0.096054 132 100 122
0.121293 0.059344 0.114361 135 100 119
0.205902 0.047609 0.073786 133 100 121
0.432750 -0.147465 0.264569 108 100 146
-0.064788 0.062935 -0.327389 135 100 119
-0.138425 0.132097 0.272700 144 100 110
-0.090683 0.087064 0.222722 138 100 116
0.424674 0.025595 -0.218166 130 100 124
-0.364476 0.104990 -0.126793 140 100 114
-0.195109 0.031658 0.177520 131 100 123
0.216252 0.002157 0.233407 127 100 127
0.008461 0.018715 0.182530 129 100 125
0.174043 0.051916 0.206904 134 100 120
-0.117388 0.029283 0.148608 131 100 123
0.342195 -0.343217 0.161764 83 100 171
-0.139547 0.062811 0.172427 135 100 119
-0.099878 0.091295 0.202313 139 100 115
-0.198652 0.013051 -0.064943 129 100 125
0.155610 0.063969 0.250295 135 100 119
-0.196367 0.034117 0.099658 131 100 123
0.010033 0.078293 -0.374149 137 100 117
-0.105963 0.074366 0.224330 136 100 118
0.321925 -0.677896 -0.204379 41 100 213
0.116853 0.075369 0.442389 137 100 117
-0.143016 0.083640 0.094401 138 100 116
-0.211369 -0.247450 -0.436146 95 100 159
-0.146405 0.036965 0.188068 132 100 122
0.333976 0.470812 -0.365127 187 100 67
-0.286448 0.011733 0.067098 128 100 126
-0.299101 0.045284 0.148168 133 100 121
0.170224 0.069275 -0.170362 136 100 118
-0.131417 0.081241 -0.070151 137 100 117
0.158045 0.085744 0.146053 138 100 116
0.197490 0.098930 0.105776 140 100 114
-0.194358 0.071849 -0.109353 136 100 118
-0.141119 0.047388 0.078482 133 100 121
0.240006 0.007871 -0.053546 128 100 126
-0.045410 0.019370 0.004819 129 100 125
0.077877 0.059176 0.103461 135 100 119
-0.200456 0.059108 0.206239 135 100 119
-0.056343 0.058502 -0.240601 134 100 120
-0.134473 0.041822 -0.216515 132 100 122
-0.198007 -0.049593 -0.218020 121 100 133
-0.112341 -0.049856 -0.326900 121 100 133
-0.058561 0.067507 -0.251376 136 100 118
-0.068025 0.026448 0.205225 130 100 124
0.009486 0.019143 -0.255770 129 100 125
0.270344 0.035429 0.045286 132 100 122
0.142160 0.073059 -0.303251 136 100 118
-0.125481 0.015062 0.073526 129 100 125
0.213649 0.022006 -0.095854 130 100 124
0.127774 0.012486 -0.303015 129 100 125
0.095511 0.103906 -0.248863 140 100 114
-0.203309 0.030543 -0.028497 131 100 123
0.001446 0.001223 -0.291964 127 100 127
0.114760 0.069622 0.295607 136 100 118
0.111768 -0.788864 0.357222 26 100 228
-0.181161 0.004181 0.209102 128 100 126
-0.205984 0.087009 -0.170300 138 100 116
0.156472 0.018413 0.226276 129 100 125
0.078075 0.033718 -0.175271 131 100 123
0.127795 0.045173 -0.230831 133 100 121
-0.112493 0.032774 0.163562 131 100 123
0.187243 0.030675 0.053609 131 100 123
0.233946 0.040475 0.071486 132 100 122
-0.034403 0.060026 0.081533 135 100 119
0.041288 -0.024142 0.205156 124 100 130
0.247006 0.318091 -0.241378 168 100 86
-0.036618 0.101884 -0.272157 140 100 114
-0.089446 0.068568 0.182818 136 100 118
-0.333946 -0.028295 0.069676 123 100 131
-0.033870 0.037251 -0.004538 132 100 122
-0.194122 -0.028995 0.123416 123 100 131
0.170963 0.007615 0.301962 128 100 126
0.168448 0.056994 -0.216924 134 100 120
0.096939 0.138020 0.326752 145 100 109
0.282068 0.025853 0.067228 130 100 124
-0.228550 0.005136 -0.158182 128 100 126
0.208876 0.037063 -0.165247 132 100 122
0.049163 0.038575 -0.300710 132 100 122
0.152769 0.031855 -0.199714 131 100 123
-0.039038 0.081224 0.218303 137 100 117
-0.212058 0.057243 -0.133659 134 100 120
0.271746 -0.717231 0.176846 36 100 218
-0.018234 0.013047 0.240933 129 100 125
0.205492 0.055268 -0.157269 134 100 120
0.126438 0.074816 0.209225 137 100 117
-0.271953 -0.797386 -0.289508 25 100 229
-0.257000 0.036229 0.160757 132 100 122
0.227585 0.015432 0.100874 129 100 125
-0.068338 0.079879 -0.273721 137 100 117
0.167511 -0.027427 -0.295884 124 100 130
0.020791 0.066482 0.233211 135 100 119
0.048064 0.008510 -0.236892 128 100 126
-0.100734 -0.029593 0.133881 123 100 131
0.220720 -0.040209 -0.220782 122 100 132
0.043388 0.103461 0.234896 140 100 114
-0.164472 0.032444 -0.126463 131 100 123
-0.040850 0.068742 -0.216921 136 100 118
0.001094 -0.014892 0.204672 125 100 129
-0.026956 0.048890 0.300437 133 100 121
-0.208821 0.036747 -0.173386 132 100 122
0.126104 0.062456 -0.192428 135 100 119
-0.005411 0.044400 -0.198360 133 100 121
0.254482 0.032768 0.042410 131 100 123
0.128295 0.034447 0.248201 131 100 123
0.201517 0.039302 -0.071986 132 100 122
-0.133216 0.076788 0.152784 137 100 117
0.156607 0.043736 -0.242889 133 100 121
0.267548 0.111809 -0.180782 141 100 113
0.348358 0.080109 -0.023703 137 100 117
0.160778 0.054436 0.194703 134 100 120
-0.157739 0.031312 0.133941 131 100 123
-0.183066 0.033392 -0.123820 131 100 123
-0.128679 0.088533 0.316595 138 100 116
0.185144 0.102851 0.336804 140 100 114
0.190161 0.028355 0.150809 131 100 123
0.227850 0.029681 0.056623 131 100 123
-0.281339 0.063827 0.130673 135 100 119
0.277019 -0.025055 -0.019918 124 100 130
0.192163 0.013420 0.034643 129 100 125
0.035483 0.009825 0.297776 128 100 126
0.297473 0.090847 0.001756 139 100 115
0.177175 -0.037873 0.211420 122 100 132
-0.185579 0.028987 0.115846 131 100 123
0.153868 0.032537 0.180115 131 100 123
0.320228 0.376297 0.004020 175 100 79
-0.267877 0.037741 0.162722 132 100 122
-0.088979 -0.004626 -0.100802 126 100 128
-0.016200 0.039363 -0.297166 132 100 122
0.168237 -0.029581 0.405291 123 100 131
0.286342 -0.006117 -0.026350 126 100 128
-0.193001 0.025439 -0.127085 130 100 124
0.241604 0.110776 -0.143788 141 100 113
0.328703 0.022064 -0.038668 130 100 124
0.043286 0.077665 0.233202 137 100 117
0.118607 0.049233 0.198943 133 100 121
-0.166794 0.046547 0.156962 133 100 121
0.194084 0.029288 -0.119396 131 100 123
-0.299206 0.036798 -0.110583 132 100 122
-0.333293 0.057967 -0.105036 134 100 120
-0.311317 -0.007813 -0.183837 126 100 128
0.043401 0.005689 -0.326376 128 100 126
-0.160622 0.002417 -0.208500 127 100 127
0.005928 0.064019 0.042996 135 100 119
-0.207721 -0.007436 0.072026 126 100 128
-0.010467 0.065429 -0.236873 135 100 119
-0.121829 0.005129 0.159823 128 100 126
-0.046013 -0.038381 0.194412 122 100 132
-0.351858 0.055730 0.003598 134 100 120
-0.160204 0.021237 0.005814 130 100 124
-0.079926 0.024143 0.258423 130 100 124
-0.162506 0.009292 -0.178175 128 100 126
-0.248420 0.075870 -0.038420 137 100 117
0.155246 -0.025394 -0.178697 124 100 130
-0.188885 -0.001597 0.037863 127 100 127
-0.273908 0.053176 -0.007332 134 100 120
-0.153873 0.024440 -0.134672 130 100 124
0.188000 0.065208 0.084308 135 100 119
0.263508 0.044117 -0.046964 133 100 121
-0.505032 -0.580521 0.262665 53 100 201
0.036879 0.032006 0.284403 131 100 123
0.135748 0.032904 -0.166015 131 100 123
0.183244 -0.595225 -0.219445 51 100 203
0.243236 0.035782 0.139779 132 100 122
0.000600 0.062212 0.162711 135 100 119
-0.251349 -0.020981 -0.137501 124 100 130
0.154023 0.063858 -0.083464 135 100 119
-0.026241 0.087700 0.350958 138 100 116
0.210064 0.058922 -0.208054 135 100 119
-0.151032 0.038999 -0.193388 132 100 122
0.166335 0.060435 -0.002626 135 100 119
0.100231 0.041968 -0.210729 132 100 122
-0.305250 -0.038274 -0.061128 122 100 132
-0.067779 -0.014048 0.238903 125 100 129
0.104504 -0.014804 0.041071 125 100 129
0.089393 0.066186 0.191194 135 100 119
0.139880 0.032356 -0.159026 131 100 123
-0.108293 0.065805 0.063833 135 100 119
-0.134983 -0.014443 0.172222 125 100 129
-0.305634 0.062077 -0.064236 135 100 119
0.156227 -0.052313 0.231411 120 100 134
0.072669 0.040358 0.302599 132 100 122
0.086022 0.041416 0.295736 132 100 122
0.196301 0.033013 0.178492 131 100 123
-0.199044 0.008705 0.144782 128 100 126
-0.120888 0.010555 0.161156 128 100 126
0.179193 -0.014579 -0.196902 125 100 129
-0.222631 0.083349 -0.111495 138 100 116
0.158903 0.048645 -0.119306 133 100 121
0.050390 0.094478 -0.142427 139 100 115
0.170688 0.024899 -0.116519 130 100 124
0.142909 0.046207 0.044956 133 100 121
-0.235427 0.037463 -0.145262 132 100 122
0.260179 0.005729 0.075017 128 100 126
-0.132579 -0.009006 0.008428 126 100 128
0.138355 0.126615 0.088680 143 100 111
-0.069329 0.018143 -0.188522 129 100 125
0.017953 0.042560 -0.247795 132 100 122
0.171340 -0.006733 -0.029917 126 100 128
-0.026105 -0.032645 0.144185 123 100 131
0.154449 0.028267 0.243966 131 100 123
0.138000 0.091019 0.039870 139 100 115
-0.055600 0.009706 -0.418631 128 100 126
0.096893 0.057766 -0.091428 134 100 120
-0.170406 0.027887 -0.174818 131 100 123
-0.268101 0.049779 -0.155112 133 100 121
-0.340043 0.098658 0.036488 140 100 114
-0.174581 0.049011 0.237524 133 100 121
-0.191060 0.029782 0.061525 131 100 123
0.069291 0.039044 0.206828 132 100 122
-0.096976 0.133539 0.211217 144 100 110
0.148003 0.051621 -0.246991 134 100 120
-0.117686 0.025187 -0.277580 130 100 124
0.559336 -0.698247 0.098617 38 100 216
0.013046 0.063000 0.100914 135 100 119
0.041162 -0.005003 -0.098331 126 100 128
0.040979 0.041303 0.184906 132 100 122
-0.244447 0.059001 -0.271190 135 100 119
0.042817 0.005558 -0.241015 128 100 126
-0.037299 0.027479 -0.123663 131 100 123
-0.236713 0.056662 0.253955 134 100 120
-0.253872 0.054659 -0.068379 134 100 120
-0.085008 0.001541 0.234679 127 100 127
-0.183865 -0.037819 0.087559 122 100 132
0.209086 0.002764 0.039388 127 100 127
0.223546 0.059224 0.238391 135 100 119
-0.051285 0.002569 -0.225423 127 100 127
-0.072413 -0.031589 -0.195776 123 100 131
0.431495 -0.718751 -0.087719 35 100 219
-0.062043 0.061963 0.253848 135 100 119
0.259957 0.058445 -0.026029 134 100 120
-0.035030 0.046199 0.242737 133 100 121
-0.064284 0.002197 0.167636 127 100 127
-0.002274 0.051522 0.140121 134 100 120
0.168606 0.064178 -0.058367 135 100 119
-0.119465 0.023373 -0.101135 130 100 124
0.069530 0.034570 0.196812 131 100 123
-0.095565 0.117394 0.119150 142 100 112
0.273946 0.025725 0.030737 130 100 124
-0.165545 0.021569 -0.237964 130 100 124
-0.187431 0.030818 0.297353 131 100 123
-0.314000 -0.018789 -0.045420 125 100 129
-0.175082 0.004527 -0.189955 128 100 126
0.048436 0.043331 0.001808 133 100 121
-0.174567 -0.029535 0.026782 123 100 131
0.259963 0.069008 -0.127986 136 100 118
0.252488 0.051718 -0.088652 134 100 120
-0.031684 0.069514 -0.210740 136 100 118
-0.107335 -0.008883 0.115988 126 100 128
0.052105 0.009390 0.210765 128 100 126
0.187691 -0.043804 0.036281 121 100 133
0.149560 0.030407 -0.068645 131 100 123
0.524704 -0.006781 0.318950 126 100 128
-0.324698 0.032952 0.284327 131 100 123
-0.253412 0.030600 -0.081460 131 100 123
0.057119 -0.010579 0.197352 126 100 128
0.216912 0.030919 -0.073398 131 100 123
-0.142775 0.038804 -0.197232 132 100 122
0.225409 0.031159 -0.094624 131 100 123
-0.246508 -0.043879 -0.189578 121 100 133
0.540435 -0.008782 0.261951 126 100 128
0.104310 0.077738 0.082591 137 100 117
-0.328009 -0.056271 0.045464 120 100 134
0.065314 0.014152 0.167147 129 100 125
-0.173869 0.034320 -0.106933 131 100 123
-0.110847 0.029792 -0.191051 131 100 123
0.096534 0.201170 -0.367572 153 100 101
-0.076153 0.037099 0.259739 132 100 122
-0.199224 0.043166 -0.352073 133 100 121
-0.166291 0.080496 -0.234601 137 100 117
0.211255 0.012129 -0.300849 129 100 125
-0.071692 0.048316 -0.292656 133 100 121
0.115509 0.073110 -0.014760 136 100 118
-0.325090 -0.035876 0.153354 122 100 132
-0.095280 0.006648 0.296779 128 100 126
0.029206 0.008824 -0.232577 128 100 126
0.101572 0.009610 -0.149517 128 100 126
-0.008885 -0.021468 -0.269523 124 100 130
-0.025489 0.020669 -0.099298 130 100 124
-0.022144 0.032530 -0.086472 131 100 123
-0.159525 0.016100 0.116949 129 100 125
0.231980 0.059233 -0.008215 135 100 119
0.062082 0.057863 0.293242 134 100 120
0.151216 0.062042 -0.186616 135 100 119
-0.341893 -0.042745 0.028269 122 100 132
-0.310546 0.422385 -0.326356 181 100 73
0.153879 0.049555 -0.177641 133 100 121
-0.179476 0.008581 -0.065892 128 100 126
-0.210187 0.023054 -0.012508 130 100 124
-0.066110 0.009266 0.207917 128 100 126
0.268099 0.072823 0.300544 136 100 118
-0.097200 0.039262 -0.165083 132 100 122
-0.085871 0.077073 -0.150096 137 100 117
0.125708 0.017960 -0.150371 129 100 125
-0.091565 -0.034427 0.187157 123 100 131
0.072489 0.043069 -0.280518 132 100 122
-0.201204 0.055197 0.027655 134 100 120
-0.130778 -0.028192 -0.032935 123 100 131
-0.012364 0.046024 -0.266018 133 100 121
0.236655 0.022798 -0.207061 130 100 124
0.210067 0.076164 -0.192046 137 100 117
-0.252302 0.046697 -0.178889 133 100 121
-0.084079 0.079880 0.208358 137 100 117
-0.228347 -0.043586 -0.022048 121 100 133
0.026949 0.079229 -0.259781 137 100 117
0.087488 0.044368 -0.201906 133 100 121
0.001223 0.034358 0.119127 131 100 123
-0.199480 0.069398 0.092419 136 100 118
0.351558 0.023856 0.139382 130 100 124
0.090512 -0.046127 -0.237863 121 100 133
0.052680 0.023973 -0.016112 130 100 124
-0.235300 0.034937 -0.119320 131 100 123
-0.059808 0.027626 -0.443055 131 100 123
-0.118129 0.043516 -0.251973 133 100 121
0.145791 0.070489 0.126578 136 100 118
0.115898 0.024385 0.057657 130 100 124
0.019839 0.021902 0.193813 130 100 124
0.058411 0.053393 -0.078988 134 100 120
0.020956 0.038639 0.083304 132 100 122
0.036685 0.033387 -0.270144 131 100 123
0.132290 0.033924 0.072712 131 100 123
-0.201681 0.029660 -0.316609 131 100 123
-0.142838 0.011852 0.126844 129 100 125
0.053596 -0.021834 -0.356683 124 100 130
0.029650 0.090933 0.171871 139 100 115
0.214287 0.041384 -0.162755 132 100 122
0.157778 0.057852 0.139584 134 100 120
0.007674 0.030699 0.187101 131 100 123
-0.059020 -0.396200 0.430372 76 100 178
0.127303 0.039093 -0.008941 132 100 122
-0.150857 0.066172 -0.306806 135 100 119
-0.200780 -0.032905 0.033588 123 100 131
0.319070 0.069655 0.110127 136 100 118
0.292261 -0.008209 -0.019887 126 100 128
0.167545 0.084185 0.125571 138 100 116
-0.165051 0.080949 -0.173232 137 100 117
-0.003985 0.080139 -0.237848 137 100 117
-0.185321 0.024458 0.011702 130 100 124
-0.108608 0.070303 0.237563 136 100 118
0.324335 0.054156 0.174207 134 100 120
0.160383 0.112611 -0.135977 141 100 113
-0.158407 0.050862 0.030294 133 100 121
0.107883 0.034306 0.233537 131 100 123
-0.093091 0.407927 -0.359263 179 100 75
0.006226 0.101154 -0.244139 140 100 114
-0.018440 -0.038745 0.207415 122 100 132
-0.001498 -0.015529 -0.257387 125 100 129
-0.193329 -0.048576 0.248817 121 100 133
-0.086196 -0.560420 -0.515111 56 100 198
-0.155357 -0.024674 -0.255914 124 100 130
-0.097603 0.016839 0.311886 129 100 125
-0.269297 0.065802 -0.086589 135 100 119
0.112743 -0.009597 0.004165 126 100 128
0.172530 -0.009046 -0.132670 126 100 128
-0.019335 0.042303 0.195704 132 100 122
-0.125628 0.051576 0.077943 134 100 120
0.013940 0.057053 0.302279 134 100 120
0.195850 0.060595 -0.009045 135 100 119
0.234013 0.093367 0.257262 139 100 115
-0.112604 0.000783 -0.159599 127 100 127
-0.104581 0.096986 -0.327875 139 100 115
0.036397 -0.005791 -0.176988 126 100 128
0.189431 0.053512 0.007476 134 100 120
-0.235781 -0.051742 -0.327294 120 100 134
-0.099552 0.048061 -0.121459 133 100 121
0.375737 0.015390 -0.097735 129 100 125
-0.244983 0.035722 -0.153819 132 100 122
0.234104 0.096593 0.087666 139 100 115
0.059791 0.008311 0.104501 128 100 126
0.124755 0.118576 -0.050984 142 100 112
0.063720 -0.049927 0.384531 121 100 133
-0.253458 -0.023635 0.240380 124 100 130
0.131613 0.066708 -0.136313 136 100 118
-0.497255 -0.251387 -0.233095 95 100 159
0.384765 0.131593 0.281480 144 100 110
0.190916 -0.013859 0.049293 125 100 129
0.082907 0.107277 0.183775 141 100 113
-0.238319 0.052620 -0.013550 134 100 120
-0.012345 0.030906 -0.234898 131 100 123
-0.203431 0.032509 0.008577 131 100 123
-0.408943 -0.064681 0.403319 119 100 135
0.090540 0.023750 0.252577 130 100 124
0.264395 0.015773 0.074586 129 100 125
-0.074597 0.048193 0.160139 133 100 121
0.088682 0.062778 0.287441 135 100 119
0.196000 -0.012513 -0.207203 125 100 129
-0.185395 -0.043521 -0.156818 121 100 133
0.206517 0.062346 -0.029085 135 100 119
-0.152464 0.071982 -0.212850 136 100 118
-0.184548 0.048321 -0.007720 133 100 121
-0.513118 0.008335 0.134630 128 100 126
0.036994 -0.005759 0.161868 126 100 128
0.303849 0.350147 0.016029 172 100 82
-0.157026 0.054908 0.123042 134 100 120
0.133038 -0.556995 0.423319 56 100 198
-0.201667 -0.020384 -0.026918 124 100 130
0.060706 0.045398 0.207814 133 100 121
-0.189408 -0.000760 -0.065597 127 100 127
0.189167 0.026526 0.146523 130 100 124
-0.234308 0.075026 0.110861 137 100 117
-0.093158 0.007172 -0.179874 128 100 126
-0.310554 0.090897 0.114637 139 100 115
-0.220943 -0.216454 0.396666 99 100 155
-0.207161 -0.009445 -0.117875 126 100 128
0.189010 0.052530 -0.010957 134 100 120
0.304578 0.210192 -0.264517 154 100 100
-0.229815 -0.035006 -0.019161 123 100 131
-0.161929 -0.003357 0.334104 127 100 127
-0.392830 -0.022482 0.110229 124 100 130
-0.231953 0.000823 0.013265 127 100 127
-0.093269 0.058319 -0.370585 134 100 120
-0.165461 -0.001969 -0.001227 127 100 127
0.108358 -0.012099 -0.098601 125 100 129
0.196199 0.005865 0.246083 128 100 126
0.244969 0.028197 0.182425 131 100 123
0.207168 0.074054 -0.093921 136 100 118
-0.210901 0.027771 0.025518 131 100 123
0.022932 0.011277 0.243574 128 100 126
-0.246653 0.011763 -0.044417 128 100 126
-0.305866 0.009452 0.098619 128 100 126
0.203450 0.051870 -0.128896 134 100 120
-0.259626 -0.160281 -0.254438 107 100 147
-0.148966 0.101154 -0.202531 140 100 114
0.044488 0.029429 0.162754 131 100 123
0.145185 0.022110 -0.068723 130 100 124
0.220979 -0.008058 0.173085 126 100 128
0.375064 -0.010738 0.103537 126 100 128
0.222409 0.070254 0.282698 136 100 118
0.135538 0.066702 0.219366 136 100 118
-0.262163 0.034475 -0.066775 131 100 123
0.086553 -0.014735 0.182784 125 100 129
-0.002578 0.016034 0.244357 129 100 125
0.163448 0.052805 -0.227061 134 100 120
-0.160195 0.036620 0.212719 132 100 122
-0.239843 0.085038 -0.092944 138 100 116
0.189570 0.046974 0.159818 133 100 121
-0.077597 0.047629 -0.230187 133 100 121
-0.128688 0.042421 0.154889 132 100 122
0.045978 0.024145 -0.138606 130 100 124
0.097516 0.119467 0.219061 142 100 112
0.211753 0.467640 -0.041479 187 100 67
-0.271591 0.054754 0.423947 134 100 120
0.042011 0.010308 0.198427 128 100 126
0.119580 0.020120 -0.050445 130 100 124
-0.004512 0.002029 0.068160 127 100 127
-0.126744 -0.006750 -0.189693 126 100 128
0.127968 0.053500 -0.101892 134 100 120
-0.399794 0.016745 -0.204450 129 100 125
0.180612 0.088551 -0.133283 138 100 116
0.114262 0.131506 -0.111340 144 100 110
0.006065 0.012584 -0.316376 129 100 125
0.231625 -0.760691 -0.330532 30 100 224
-0.175611 0.005689 -0.124931 128 100 126
0.066366 0.022670 0.092020 130 100 124
0.157093 0.017325 0.192074 129 100 125
0.185122 0.060128 -0.212190 135 100 119
0.151758 0.064491 -0.026287 135 100 119
-0.190161 0.013882 0.002695 129 100 125
-0.152863 0.073961 0.265437 136 100 118
0.181228 0.103757 0.173133 140 100 114
0.232963 0.055115 0.193147 134 100 120
-0.208586 0.155174 0.255411 147 100 107
0.098525 0.001164 0.072115 127 100 127
0.217234 -0.008367 0.181478 126 100 128
0.183848 0.002386 -0.016875 127 100 127
0.296449 0.015814 0.033387 129 100 125
-0.040720 0.033101 -0.193306 131 100 123
-0.207622 0.012400 -0.079166 129 100 125
-0.128298 0.058344 -0.271240 134 100 120
-0.165311 0.110236 -0.080029 141 100 113
