ply
format ascii 1.0
element vertex 1191
property float x
property float y
property float z
property uchar red
property uchar green
property uchar blue
end_header
0.157718 0.023991 0.249153 130 100 124
-0.449160 0.019399 -0.045120 129 100 125
-0.054362 0.024556 -0.308242 130 100 124
0.333557 -0.801692 -0.003521 25 100 229
0.339264 0.019040 -0.049792 129 100 125
-0.424298 0.253713 0.040018 159 100 95
0.174684 0.033204 -0.136480 131 100 123
-0.048569 0.070063 -0.137838 136 100 118
0.029156 0.006816 0.340961 128 100 126
0.175673 0.053945 0.101234 134 100 120
-0.233957 0.095613 0.241536 139 100 115
0.118730 0.004394 0.111534 128 100 126
-0.023500 0.024337 0.289310 130 100 124
0.340833 -0.064613 0.074568 119 100 135
-0.239636 0.000878 -0.061881 127 100 127
-0.389609 0.014145 0.027795 129 100 125
-0.080076 0.014981 0.274830 129 100 125
-0.147678 0.026764 0.101528 130 100 124
-0.198347 0.087963 -0.094565 138 100 116
0.115866 0.009647 0.254812 128 100 126
0.141450 0.048868 0.153450 133 100 121
-0.037672 0.034638 0.218022 131 100 123
-0.178894 0.019744 -0.120586 130 100 124
-0.283934 -0.010265 0.368950 126 100 128
-0.003620 0.074334 -0.340525 136 100 118
-0.249283 0.068025 0.021437 136 100 118
-0.286046 0.044239 -0.065003 133 100 121
0.161684 0.071221 -0.100239 136 100 118
-0.182745 0.044793 0.190073 133 100 121
-0.241002 -0.012896 0.038137 125 100 129
-0.262208 0.022709 -0.102813 130 100 124
-0.112919 -0.068200 0.303398 118 100 136
0.211492 -0.019524 -0.056439 125 100 129
0.144170 0.056448 0.195034 134 100 120
0.100275 -0.057796 0.601521 120 100 134
-0.042678 0.048281 -0.210294 133 100 121
-0.056792 0.048382 -0.098848 133 100 121
0.008693 0.017030 0.335484 129 100 125
-0.180504 0.047746 0.151570 133 100 121
0.138051 0.037054 0.185395 132 100 122
-0.225935 -0.094005 0.092600 115 100 139
0.288211 0.051911 -0.193671 134 100 120
0.253356 -0.031961 -0.358882 123 100 131
-0.183237 0.011424 -0.058986 128 100 126
-0.115681 0.050265 0.043867 133 100 121
0.162287 0.053332 0.198719 134 100 120
0.111164 -0.226852 -0.341607 98 100 156
0.014085 -0.004167 0.226223 126 100 128
0.034844 0.022130 -0.146613 130 100 124
-0.153906 0.075664 0.181201 137 100 117
0.229022 0.082249 0.038718 137 100 117
0.046121 0.034196 -0.166093 131 100 123
-0.228491 0.066026 0.004379 135 100 119
0.042002 0.019879 0.071548 130 100 124
0.237607 0.039126 -0.102927 132 100 122
-0.111012 0.037318 0.081054 132 100 122
0.021345 0.064552 0.293322 135 100 119
0.093258 0.075090 0.094262 137 100 117
0.055603 0.093313 -0.402590 139 100 115
0.116732 -0.009490 0.175280 126 100 128
-0.034932 0.065281 -0.276778 135 100 119
0.148833 0.075269 -0.165470 137 100 117
-0.120031 -0.000053 -0.051960 127 100 127
-0.188457 0.077545 0.069497 137 100 117
0.095219 0.036760 0.094584 132 100 122
0.324988 0.077126 0.054154 137 100 117
-0.224054 0.031657 -0.136799 131 100 123
-0.370626 -0.021196 0.119172 124 100 130
0.003894 0.007181 -0.229781 128 100 126
0.214595 0.064985 -0.158381 135 100 119
0.433460 -0.004420 0.165614 126 100 128
-0.161044 0.051663 -0.043039 134 100 120
-0.067476 0.071351 0.156291 136 100 118
0.044146 0.018740 0.263014 129 100 125
-0.147579 0.031367 -0.260520 131 100 123
0.248112 0.029213 0.154889 131 100 123
-0.228555 0.005158 -0.211757 128 100 126
-0.134934 0.008047 0.071407 128 100 126
-0.161467 0.094597 -0.164230 139 100 115
-0.302033 0.384794 0.341133 176 100 78
0.130680 0.008379 0.260422 128 100 126
0.421131 -0.438942 -0.134722 71 100 183
-0.394973 0.043806 -0.385218 133 100 121
0.159876 -0.085421 -0.308732 116 100 138
0.108367 -0.011456 0.168145 126 100 128
-0.274607 -0.021479 -0.226463 124 100 130
-0.140438 0.427632 0.226783 182 100 72
-0.220761 0.045632 -0.035821 133 100 121
-0.269322 0.029192 0.151524 131 100 123
0.109676 0.036243 0.230836 132 100 122
0.073791 0.090501 -0.048268 139 100 115
-0.002644 0.069305 0.004934 136 100 118
-0.379919 0.115771 0.229644 142 100 112
0.221367 0.051516 0.168971 134 100 120
0.211808 0.033646 0.172094 131 100 123
0.240248 0.016114 0.209001 129 100 125
0.016536 0.032261 -0.269089 131 100 123
-0.390854 -0.114495 -0.135140 112 100 142
0.246167 -0.417443 -0.340190 74 100 180
-0.099123 0.027577 0.255768 131 100 123
-0.431017 -0.084717 -0.263662 116 100 138
0.157854 0.013651 -0.028463 129 100 125
-0.040697 0.008878 -0.006599 128 100 126
-0.225270 0.011982 -0.142280 129 100 125
-0.065113 0.019436 0.126420 129 100 125
-0.217302 -0.655340 0.343235 43 100 211
0.027979 0.039224 0.089735 132 100 122
-0.127483 0.037542 0.284669 132 100 122
0.041175 0.038898 -0.366238 132 100 122
-0.209977 0.067662 -0.142350 136 100 118
0.532928 -0.213601 -0.247645 100 100 154
0.452050 0.022082 -0.104058 130 100 124
-0.036810 0.129132 0.299573 143 100 111
-0.196678 0.028536 -0.107527 131 100 123
-0.002141 0.040515 0.197726 132 100 122
0.163253 0.008647 -0.043538 128 100 126
-0.165992 0.092129 0.208891 139 100 115
0.216251 0.011825 0.156548 129 100 125
0.263812 0.036415 0.116268 132 100 122
-0.115383 0.030626 0.198042 131 100 123
-0.131626 0.025609 -0.105925 130 100 124
-0.058707 0.094226 0.260733 139 100 115
-0.018433 0.066589 -0.220765 135 100 119
0.113605 -0.263232 -0.513879 93 100 161
-0.226130 0.004358 -0.169981 128 100 126
-0.188178 0.083306 0.200652 138 100 116
0.237764 0.066455 0.004205 135 100 119
-0.029990 0.060253 0.149259 135 100 119
0.086913 -0.005378 0.233249 126 100 128
0.061101 0.030735 -0.259147 131 100 123
-0.032117 0.036646 0.101612 132 100 122
0.014200 -0.011988 0.283910 125 100 129
-0.264573 0.029320 0.102987 131 100 123
-0.267184 0.022782 -0.046230 130 100 124
-0.108753 0.121234 0.302429 142 100 112
-0.254211 0.031507 -0.030050 131 100 123
-0.276515 0.030824 -0.030375 131 100 123
-0.002425 -0.010899 0.273082 126 100 128
0.147281 0.040914 0.101610 132 100 122
0.370935 0.023869 -0.002167 130 100 124
-0.049594 -0.043238 0.286018 121 100 133
-0.116024 -0.030150 -0.194221 123 100 131
-0.085347 0.046167 -0.119582 133 100 121
-0.102195 0.043428 0.196138 133 100 121
0.045488 0.061416 0.252282 135 100 119
-0.033483 0.016968 0.045566 129 100 125
0.014111 0.036260 -0.262921 132 100 122
-0.173713 0.061512 0.296929 135 100 119
0.183772 0.025618 0.105596 130 100 124
-0.112781 0.056892 0.063126 134 100 120
0.213000 0.016909 0.204278 129 100 125
0.094883 0.046121 -0.087744 133 100 121
0.142896 0.045606 -0.006244 133 100 121
-0.095113 0.031029 0.259682 131 100 123
0.143037 0.079859 0.016891 137 100 117
0.150297 -0.025631 -0.124362 124 100 130
-0.195345 0.017377 0.008518 129 100 125
0.159515 0.020643 0.222879 130 100 124
0.406741 0.158556 -0.069624 147 100 107
0.127567 0.041409 -0.103107 132 100 122
-0.025832 0.042909 0.187575 132 100 122
-0.196204 0.014212 -0.028101 129 100 125
-0.294722 0.017564 0.257909 129 100 125
0.056415 0.029850 0.314785 131 100 123
0.161347 0.053706 0.129787 134 100 120
0.058578 0.045447 0.191128 133 100 121
-0.145075 0.052208 0.023319 134 100 120
-0.046274 0.015723 0.029973 129 100 125
-0.126697 0.055566 0.219123 134 100 120
-0.233689 0.057348 -0.266919 134 100 120
0.253420 0.025776 0.004221 130 100 124
0.151956 0.043696 0.294463 133 100 121
-0.047674 0.039384 -0.180729 132 100 122
0.406491 0.110682 0.050028 141 100 113
0.252078 0.068550 0.109131 136 100 118
-0.182306 0.038141 0.185243 132 100 122
0.151740 0.116496 0.223857 142 100 112
-0.136260 0.055685 0.066618 134 100 120
-0.284366 0.012778 -0.051398 129 100 125
0.071548 -0.050132 0.222225 121 100 133
0.000862 0.003559 0.268285 127 100 127
0.209420 0.028893 0.248390 131 100 123
-0.187823 -0.008156 -0.048334 126 100 128
-0.466106 0.598328 0.086231 203 100 51
0.253828 0.087937 0.092208 138 100 116
-0.280226 -0.022657 0.013397 124 100 130
0.021270 0.016686 0.173859 129 100 125
-0.206744 -0.010504 -0.021952 126 100 128
0.057963 0.109922 -0.285594 141 100 113
-0.017515 -0.003143 0.148322 127 100 127
0.049322 -0.029782 0.211746 123 100 131
0.287192 0.024122 -0.141355 130 100 124
0.116396 -0.003770 -0.132441 127 100 127
0.058541 -0.006564 -0.393234 126 100 128
0.291003 -0.033310 0.082732 123 100 131
0.330136 0.073440 0.195402 136 100 118
0.261183 0.099529 0.066616 140 100 114
-0.135691 0.007869 0.503722 128 100 126
-0.064778 0.063497 -0.106602 135 100 119
-0.266188 0.072932 -0.109521 136 100 118
0.010805 0.043474 -0.086864 133 100 121
0.263688 0.079048 -0.461093 137 100 117
-0.080363 0.053667 -0.208551 134 100 120
0.265047 0.015224 0.032162 129 100 125
-0.016959 0.030159 0.273756 131 100 123
-0.259270 0.020219 -0.026917 130 100 124
-0.055347 0.036285 -0.412883 132 100 122
-0.109171 -0.008698 0.188007 126 100 128
0.210010 0.045840 0.105430 133 100 121
-0.000857 -0.030899 0.379616 123 100 131
0.531914 -0.507596 0.082906 62 100 192
-0.169668 0.072301 0.052607 136 100 118
0.084995 0.052732 -0.281959 134 100 120
-0.265657 0.065880 0.026226 135 100 119
-0.097462 0.051158 0.212572 134 100 120
-0.131053 0.046284 0.208140 133 100 121
-0.151253 0.035068 0.136045 131 100 123
0.198311 0.040107 -0.238344 132 100 122
-0.033182 0.006271 -0.171609 128 100 126
-0.185854 0.024094 0.095533 130 100 124
-0.185052 0.035110 -0.044661 131 100 123
-0.389638 0.057848 -0.141373 134 100 120
0.003042 0.023945 -0.077557 130 100 124
-0.134742 0.038335 -0.173312 132 100 122
0.034686 0.030349 0.272205 131 100 123
-0.101487 0.117866 0.158597 142 100 112
-0.295879 0.000337 0.008188 127 100 127
0.060313 0.033742 -0.248041 131 100 123
0.207779 0.076071 0.053701 137 100 117
0.178645 -0.048750 0.291198 121 100 133
0.217992 0.330290 -0.050455 169 100 85
-0.136145 0.071306 0.441363 136 100 118
-0.244156 0.039205 0.198393 132 100 122
-0.080075 -0.004642 0.263207 126 100 128
-0.214138 0.037973 -0.083603 132 100 122
-0.248971 0.046623 -0.064483 133 100 121
0.085776 0.015687 0.194094 129 100 125
0.079395 0.009582 -0.148564 128 100 126
0.130782 0.049256 0.228045 133 100 121
0.217677 0.028766 -0.190508 131 100 123
0.086130 -0.003013 0.202135 127 100 127
-0.273833 0.329891 -0.211796 169 100 85
0.162508 0.114258 -0.185609 142 100 112
0.307285 0.018225 -0.274694 129 100 125
-0.056833 0.057731 -0.201722 134 100 120
0.114127 0.045812 0.247940 133 100 121
0.175578 0.044164 -0.065630 133 100 121
-0.058877 0.027569 0.273303 131 100 123
-0.121471 -0.014366 0.083474 125 100 129
-0.147046 -0.690287 -0.483807 39 100 215
0.317408 0.062305 0.136887 135 100 119
0.331801 0.059460 0.193459 135 100 119
-0.047657 0.022709 0.114872 130 100 124
0.208365 0.099052 -0.114102 140 100 114
-0.024307 0.034058 -0.197240 131 100 123
0.198430 0.008527 0.107010 128 100 126
-0.025823 0.026775 0.487779 130 100 124
0.024327 0.112959 -0.174848 141 100 113
-0.403421 0.009809 0.096317 128 100 126
-0.217507 0.052470 -0.133018 134 100 120
-0.183761 0.072159 0.108624 136 100 118
-0.051671 0.024615 0.141633 130 100 124
-0.145393 -0.047582 -0.202343 121 100 133
-0.090465 0.026047 -0.236272 130 100 124
-0.100649 -0.003698 0.159846 127 100 127
-0.045200 0.036756 -0.211960 132 100 122
-0.355331 0.029612 0.037548 131 100 123
-0.394489 0.038617 -0.231688 132 100 122
0.240818 0.010579 -0.103734 128 100 126
0.139664 0.065997 -0.092056 135 100 119
0.167760 0.102156 -0.199428 140 100 114
-0.271979 0.052823 0.106850 134 100 120
-0.154025 0.034939 -0.119069 131 100 123
-0.298461 0.024150 -0.076431 130 100 124
0.128011 0.033024 -0.038631 131 100 123
-0.119797 0.047940 -0.243983 133 100 121
0.236658 0.052179 0.122878 134 100 120
0.072814 0.015237 0.179269 129 100 125
-0.258793 0.004363 0.057465 128 100 126
-0.038064 0.092657 -0.119748 139 100 115
0.264877 0.045287 -0.083442 133 100 121
-0.072000 0.038847 -0.197116 132 100 122
0.151966 0.016230 -0.170676 129 100 125
0.177274 -0.105990 -0.598664 113 100 141
-0.207436 0.031435 0.116361 131 100 123
-0.192969 0.035556 0.143737 132 100 122
-0.277830 0.041621 -0.006660 132 100 122
-0.253885 0.033215 -0.101351 131 100 123
0.049972 0.023717 -0.248487 130 100 124
0.106552 -0.600655 -0.346339 50 100 204
-0.056555 0.056860 -0.112386 134 100 120
0.249670 0.053038 0.040120 134 100 120
-0.258333 0.062841 0.105643 135 100 119
0.212999 0.026564 -0.026422 130 100 124
-0.158746 -0.008054 -0.216778 126 100 128
-0.123274 0.048378 0.215309 133 100 121
-0.226441 0.107601 -0.056451 141 100 113
-0.168797 0.002843 0.035980 127 100 127
0.113554 0.047144 -0.318922 133 100 121
-0.308922 0.040696 0.102407 132 100 122
-0.144991 -0.431598 0.552008 72 100 182
0.161799 0.022475 0.133223 130 100 124
0.236577 0.029137 0.199499 131 100 123
-0.251684 -0.009710 0.431972 126 100 128
0.140929 0.028358 -0.166840 131 100 123
0.042410 0.055757 -0.218208 134 100 120
-0.202836 0.057828 0.343834 134 100 120
0.104166 0.036654 -0.110626 132 100 122
-0.215005 0.065365 0.105845 135 100 119
0.186713 0.099034 -0.073537 140 100 114
0.057445 0.051984 -0.327712 134 100 120
0.194096 0.065346 -0.156261 135 100 119
-0.101171 0.045046 0.001503 133 100 121
-0.095928 0.083638 -0.247044 138 100 116
-0.118485 0.013800 -0.249166 129 100 125
0.050692 -0.009816 -0.227618 126 100 128
0.178214 0.047948 0.077509 133 100 121
-0.033965 -0.178628 -0.496450 104 100 150
0.257081 0.013166 0.175629 129 100 125
-0.149949 -0.015628 0.030947 125 100 129
-0.149540 0.070843 -0.101683 136 100 118
-0.238282 0.080369 0.120931 137 100 117
-0.266374 0.120788 -0.219176 142 100 112
-0.298206 0.057973 -0.138877 134 100 120
0.224430 -0.012375 -0.091619 125 100 129
0.142654 -0.058526 -0.245893 120 100 134
-0.170642 0.055170 -0.015350 134 100 120
-0.085513 0.049849 -0.257149 133 100 121
-0.083033 0.030518 -0.106982 131 100 123
-0.093428 0.080537 -0.147946 137 100 117
0.305612 -0.065244 -0.189807 119 100 135
-0.264960 0.043589 -0.060882 133 100 121
-0.004933 0.089914 -0.301710 138 100 116
-0.287256 0.025308 -0.051931 130 100 124
0.204601 0.031303 0.209714 131 100 123
-0.131999 0.102445 0.175208 140 100 114
-0.039995 0.000445 -0.210799 127 100 127
-0.014830 0.054621 -0.211923 134 100 120
0.179209 0.028192 0.169563 131 100 123
0.049072 -0.002930 0.204456 127 100 127
-0.123482 0.004074 -0.236757 128 100 126
0.009522 0.015733 -0.174275 129 100 125
0.202898 0.003221 -0.105953 127 100 127
-0.174830 0.019102 -0.126394 129 100 125
-0.144624 0.039834 0.183696 132 100 122
-0.178350 0.102969 -0.149609 140 100 114
0.249328 0.030522 -0.185422 131 100 123
0.223626 0.019526 -0.021693 129 100 125
0.143390 0.021139 -0.104929 130 100 124
-0.200300 0.032954 -0.052556 131 100 123
-0.179210 0.051141 0.136774 134 100 120
0.194838 0.001151 0.069005 127 100 127
0.155541 0.004425 0.006310 128 100 126
0.144166 0.101254 -0.159393 140 100 114
-0.024561 0.116971 0.163002 142 100 112
-0.087990 0.051068 -0.222737 134 100 120
-0.306764 0.055032 0.002416 134 100 120
0.089129 0.080047 -0.240538 137 100 117
0.018379 -0.011955 0.251928 125 100 129
0.157555 0.088919 0.223509 138 100 116
0.157380 0.100558 -0.271584 140 100 114
-0.366782 0.067310 0.004744 136 100 118
-0.173310 -0.011264 -0.229592 126 100 128
0.248180 0.810371 0.113791 230 100 24
0.042494 0.020639 -0.152032 130 100 124
0.124593 0.080204 0.274583 137 100 117
0.080415 0.031091 0.175059 131 100 123
0.044350 0.045903 -0.210717 133 100 121
0.253444 0.029390 0.220754 131 100 123
-0.025377 -0.785738 0.395525 27 100 227
0.170141 -0.004357 0.048770 126 100 128
-0.336156 -0.027553 -0.110246 123 100 131
-0.471764 0.031032 -0.117040 131 100 123
0.213010 0.020433 -0.057002 130 100 124
-0.266679 0.047257 0.137890 133 100 121
-0.317125 0.158867 0.454849 147 100 107
0.071057 0.082552 -0.106489 138 100 116
-0.155665 0.014234 -0.334942 129 100 125
0.141933 0.055674 0.183289 134 100 120
-0.002062 0.097922 -0.207329 139 100 115
0.180411 0.327513 0.261234 169 100 85
0.190316 0.023520 -0.091867 130 100 124
-0.322057 0.035104 -0.098144 131 100 123
0.194599 0.788431 0.327219 228 100 26
0.287433 0.054079 0.188180 134 100 120
0.201962 0.038983 0.021479 132 100 122
0.274701 0.056114 0.003722 134 100 120
-0.028888 0.069940 -0.195709 136 100 118
0.483338 -0.701138 0.264916 38 100 216
-0.248513 0.015960 0.049770 129 100 125
-0.170781 0.047050 0.114928 133 100 121
-0.237918 -0.010775 -0.075356 126 100 128
0.021458 0.071134 0.112901 136 100 118
0.074170 0.023109 -0.276265 130 100 124
0.083210 0.046966 -0.327243 133 100 121
-0.284238 0.059193 0.055882 135 100 119
0.080905 0.069701 0.269757 136 100 118
0.169606 0.094490 -0.048795 139 100 115
-0.115759 0.041677 0.254905 132 100 122
0.113694 0.094300 0.021384 139 100 115
-0.091707 0.027636 0.101193 131 100 123
-0.338214 0.007016 -0.094341 128 100 126
-0.168120 0.053197 -0.168678 134 100 120
0.185935 0.110183 0.091860 141 100 113
0.258663 0.088418 0.045041 138 100 116
-0.251957 0.067312 0.186656 136 100 118
-0.271827 0.075972 0.201235 137 100 117
-0.048508 -0.013691 0.225860 125 100 129
-0.119820 0.086058 -0.223698 138 100 116
-0.186730 0.008600 -0.220860 128 100 126
0.188424 0.081680 -0.065667 137 100 117
0.085982 0.041923 0.151273 132 100 122
-0.092058 0.034634 0.239726 131 100 123
-0.058412 0.054829 0.269291 134 100 120
-0.248248 0.126432 0.289680 143 100 111
0.231697 0.010691 -0.162188 128 100 126
-0.272051 0.041063 0.116083 132 100 122
0.085625 -0.467783 -0.332773 67 100 187
-0.228129 0.032598 -0.163048 131 100 123
0.033074 0.071643 0.275215 136 100 118
0.319840 0.074579 -0.085015 137 100 117
0.312430 0.020319 -0.285932 130 100 124
-0.186853 0.045497 -0.093855 133 100 121
0.249038 0.026559 -0.128663 130 100 124
0.046492 0.000348 0.201838 127 100 127
-0.107142 0.096326 0.232633 139 100 115
-0.153085 0.050641 -0.179377 133 100 121
0.402924 -0.078607 -0.025091 117 100 137
0.192781 0.014123 -0.256929 129 100 125
0.253720 -0.517065 0.295054 61 100 193
-0.099794 0.050293 0.198879 133 100 121
-0.237944 -0.018962 0.112223 125 100 129
0.045554 0.087897 -0.154922 138 100 116
-0.212192 0.007390 0.129278 128 100 126
0.234483 0.006266 0.110348 128 100 126
-0.141995 0.045146 0.119803 133 100 121
-0.078785 -0.357793 -0.598657 81 100 173
-0.448621 -0.086086 -0.344794 116 100 138
-0.182808 -0.022911 0.254266 124 100 130
-0.080480 0.019851 0.110894 130 100 124
-0.082525 0.009012 -0.226713 128 100 126
0.159663 0.039244 -0.134628 132 100 122
-0.352518 -0.118381 0.112564 112 100 142
0.115875 0.098251 -0.186833 140 100 114
-0.184768 0.096283 -0.088007 139 100 115
-0.341574 0.068875 0.176387 136 100 118
-0.003653 -0.015860 -0.255105 125 100 129
-0.168893 0.047747 0.012954 133 100 121
-0.260669 0.026085 -0.082239 130 100 124
-0.213235 0.064143 -0.076420 135 100 119
0.134328 0.061512 0.194482 135 100 119
0.188065 0.051847 0.213564 134 100 120
0.115902 -0.011396 -0.246889 126 100 128
0.091380 0.014865 -0.121465 129 100 125
0.047369 0.014925 0.133586 129 100 125
-0.080834 0.057512 -0.258773 134 100 120
-0.055933 0.115319 0.505120 142 100 112
0.223671 0.022501 -0.099560 130 100 124
-0.289703 0.023589 0.097490 130 100 124
0.033522 0.032054 0.197443 131 100 123
-0.059397 0.080665 -0.253326 137 100 117
0.127901 0.008470 0.040433 128 100 126
-0.325407 -0.706346 -0.277522 37 100 217
0.044015 -0.011619 0.103785 126 100 128
-0.124425 0.038742 0.272878 132 100 122
0.129761 0.053363 -0.167317 134 100 120
-0.129444 0.057227 -0.061193 134 100 120
-0.254600 0.064116 -0.023570 135 100 119
0.214308 0.053611 -0.006426 134 100 120
0.030926 0.040700 -0.189662 132 100 122
0.085335 0.058563 -0.224656 134 100 120
0.184272 0.038477 -0.164630 132 100 122
0.036442 0.079906 0.292668 137 100 117
0.107005 0.022692 0.272511 130 100 124
0.238851 0.000610 -0.015283 127 100 127
-0.092847 0.085466 -0.247383 138 100 116
-0.490427 -0.181517 -0.011819 104 100 150
0.261500 0.059670 0.072242 135 100 119
-0.009854 0.005688 0.228670 128 100 126
0.235624 0.066489 -0.010935 135 100 119
-0.026160 0.128371 0.222462 143 100 111
-0.108754 0.043578 0.274247 133 100 121
-0.022719 0.034992 -0.255384 131 100 123
0.133089 -0.029439 0.235871 123 100 131
0.000292 0.066804 -0.212971 136 100 118
-0.004870 0.001260 -0.235799 127 100 127
0.137001 0.083903 0.127144 138 100 116
-0.020911 0.067283 -0.188606 136 100 118
0.059404 0.796656 -0.395968 229 100 25
0.362562 0.094214 -0.091922 139 100 115
-0.207038 0.055314 -0.084706 134 100 120
-0.042761 0.046844 0.325735 133 100 121
0.046531 -0.013995 0.244832 125 100 129
-0.131715 0.029806 0.075291 131 100 123
0.039677 0.050483 0.273106 133 100 121
-0.031643 0.063099 0.142673 135 100 119
0.145357 0.025385 0.233779 130 100 124
0.105200 0.033372 0.464467 131 100 123
0.356119 -0.531218 0.196637 59 100 195
-0.139157 0.096457 -0.172494 139 100 115
0.231918 0.001054 0.155348 127 100 127
0.369653 -0.197259 -0.313353 102 100 152
0.224940 -0.019375 -0.105624 125 100 129
0.053519 0.016210 0.355966 129 100 125
0.203934 0.041237 -0.156331 132 100 122
0.238551 -0.009995 -0.227988 126 100 128
-0.233402 0.056539 -0.208501 134 100 120
-0.109994 0.050696 -0.268755 133 100 121
-0.242553 0.019902 -0.161791 130 100 124
-0.084381 0.064569 -0.328977 135 100 119
-0.061542 0.015040 -0.295229 129 100 125
0.163809 0.084475 -0.132886 138 100 116
0.180326 -0.017403 0.212920 125 100 129
-0.065458 -0.023539 0.197753 124 100 130
-0.201957 0.026865 0.106160 130 100 124
0.242122 0.064164 0.206430 135 100 119
0.219713 0.026589 0.057156 130 100 124
0.000932 0.038232 0.240758 132 100 122
0.355056 0.150235 0.191061 146 100 108
0.175442 0.056200 -0.135440 134 100 120
-0.010454 0.050492 0.031622 133 100 121
0.280556 0.026370 -0.082744 130 100 124
-0.546136 -0.176680 0.234152 104 100 150
0.187389 0.086576 0.042417 138 100 116
-0.222972 0.071015 0.257050 136 100 118
0.118014 -0.051455 -0.424189 120 100 134
0.086802 -0.024390 0.260779 124 100 130
0.315670 0.002238 0.062287 127 100 127
0.026064 -0.001159 0.139479 127 100 127
-0.140428 0.056610 0.215846 134 100 120
-0.271129 0.010890 -0.038104 128 100 126
0.300111 0.001535 -0.078037 127 100 127
0.215887 0.080758 -0.304035 137 100 117
-0.044219 0.059602 0.132270 135 100 119
0.431253 0.137858 -0.269420 145 100 109
0.089051 0.092459 -0.164744 139 100 115
0.141162 0.098783 -0.246851 140 100 114
0.147120 0.081093 -0.161066 137 100 117
-0.281971 0.034756 -0.019454 131 100 123
0.137120 0.052248 -0.353031 134 100 120
-0.152041 0.043998 -0.111733 133 100 121
-0.068240 0.082609 0.299051 138 100 116
-0.175175 0.098759 0.155338 140 100 114
-0.084440 -0.005072 -0.170710 126 100 128
0.168712 0.053804 0.208822 134 100 120
-0.014143 0.050856 0.014679 133 100 121
0.057293 0.024861 0.334327 130 100 124
-0.209690 0.060071 0.067460 135 100 119
0.285018 0.026149 0.105738 130 100 124
-0.174442 0.052360 0.021988 134 100 120
-0.014450 0.096859 -0.251354 139 100 115
0.241138 0.040852 0.220624 132 100 122
-0.059769 0.075376 -0.215528 137 100 117
-0.042671 0.037421 0.214331 132 100 122
-0.208837 0.019852 0.154894 130 100 124
0.161816 0.026129 -0.133554 130 100 124
0.387211 -0.460710 -0.424146 68 100 186
0.157544 0.007398 0.288861 128 100 126
-0.074397 0.263879 0.313379 161 100 93
-0.034504 0.024993 -0.082926 130 100 124
-0.245351 0.062048 0.097676 135 100 119
0.121056 0.051505 0.191556 134 100 120
-0.121629 -0.008114 0.071238 126 100 128
0.192759 0.086468 -0.010052 138 100 116
-0.051170 0.060718 -0.108161 135 100 119
-0.162511 0.014828 -0.392472 129 100 125
0.253413 0.127085 0.433971 143 100 111
0.099396 0.007858 -0.216655 128 100 126
-0.087348 0.040371 0.225184 132 100 122
-0.243951 0.034944 -0.068621 131 100 123
-0.384102 -0.395108 0.463718 77 100 177
0.214960 0.073346 -0.036212 136 100 118
0.229254 0.003013 0.010637 127 100 127
-0.147436 -0.007372 -0.254124 126 100 128
0.110835 0.022309 0.026599 130 100 124
0.097406 0.067042 -0.224327 136 100 118
-0.172304 0.053772 0.153131 134 100 120
-0.136746 0.052358 0.023106 134 100 120
-0.048555 0.030244 -0.346474 131 100 123
-0.324480 0.071956 0.001731 136 100 118
-0.233270 0.022713 0.057198 130 100 124
-0.176674 0.087619 0.065711 138 100 116
-0.058579 0.007844 -0.237883 128 100 126
0.123015 0.094129 0.210171 139 100 115
-0.239244 -0.004913 -0.069534 126 100 128
-0.159549 0.065319 -0.017626 135 100 119
-0.188514 0.046099 0.043650 133 100 121
-0.048947 0.053466 0.195570 134 100 120
-0.183643 0.082058 -0.263364 137 100 117
-0.149148 -0.001223 -0.052819 127 100 127
0.200866 0.458465 0.220128 185 100 69
-0.282924 0.057256 -0.026705 134 100 120
0.090762 0.096782 -0.284456 139 100 115
-0.489971 0.034531 0.090100 131 100 123
0.217718 -0.164215 -0.456365 106 100 148
-0.460597 -0.478507 -0.033206 66 100 188
0.072333 0.037028 0.199189 132 100 122
0.042139 0.003324 -0.141338 127 100 127
-0.079372 0.032848 0.351520 131 100 123
0.100205 0.049202 -0.220150 133 100 121
-0.056948 0.092610 -0.255461 139 100 115
-0.162581 0.052328 0.045894 134 100 120
-0.033401 0.086413 0.223415 138 100 116
0.315210 0.014215 -0.057469 129 100 125
-0.036478 -0.494562 -0.447812 64 100 190
0.179272 0.043031 0.024048 132 100 122
-0.108810 0.026108 0.223130 130 100 124
0.161240 -0.001690 -0.197338 127 100 127
0.114855 -0.014397 -0.009453 125 100 129
0.116220 0.077975 -0.269490 137 100 117
-0.109356 0.009370 -0.021506 128 100 126
0.018280 0.024999 0.253364 130 100 124
0.174664 0.099466 -0.192308 140 100 114
0.068006 0.059208 0.146007 135 100 119
0.070420 0.037757 -0.377542 132 100 122
-0.227561 0.109097 -0.151263 141 100 113
0.063757 -0.007435 -0.119466 126 100 128
-0.189629 0.046072 -0.039456 133 100 121
-0.184655 -0.008245 0.107045 126 100 128
-0.109909 0.121759 -0.239193 143 100 111
-0.159140 0.092540 0.100773 139 100 115
-0.018487 0.038553 -0.036928 132 100 122
-0.245870 -0.003448 0.221895 127 100 127
-0.221039 0.092905 -0.179931 139 100 115
-0.138685 0.043445 0.103404 133 100 121
-0.227747 0.073109 -0.103421 136 100 118
-0.080718 -0.044359 0.192933 121 100 133
0.131218 0.048907 -0.165101 133 100 121
-0.191308 0.010289 0.050378 128 100 126
-0.241982 0.014774 -0.120251 129 100 125
-0.392588 0.020048 0.018934 130 100 124
-0.184477 -0.015094 -0.131409 125 100 129
0.255995 -0.228632 0.425701 98 100 156
-0.270550 -0.014480 -0.097400 125 100 129
-0.156530 0.010883 -0.071502 128 100 126
0.204911 0.046936 -0.144081 133 100 121
0.153091 0.483426 -0.389044 189 100 65
-0.223962 0.003177 -0.073631 127 100 127
-0.254095 0.089194 -0.096233 138 100 116
0.165132 0.056873 -0.136512 134 100 120
-0.139231 0.051362 -0.277158 134 100 120
0.001689 0.020754 0.286553 130 100 124
-0.153305 -0.036461 -0.032421 122 100 132
0.271926 0.120035 0.216464 142 100 112
-0.226574 0.021893 0.124926 130 100 124
0.072168 0.059529 0.247010 135 100 119
-0.040288 0.039339 0.226341 132 100 122
-0.087048 -0.002517 -0.028513 127 100 127
-0.405760 -0.026012 -0.036027 124 100 130
0.140045 0.020908 0.297667 130 100 124
0.297498 0.076480 0.004874 137 100 117
-0.152035 -0.014200 -0.046401 125 100 129
0.155680 0.045691 0.015350 133 100 121
-0.229573 -0.013881 -0.026539 125 100 129
-0.013274 0.045508 0.238958 133 100 121
-0.255314 0.042022 -0.198058 132 100 122
-0.250179 0.024599 -0.064786 130 100 124
-0.111814 0.051050 -0.088533 134 100 120
0.088201 0.083271 -0.170301 138 100 116
-0.268729 0.809210 -0.162727 230 100 24
0.057340 0.045461 0.158768 133 100 121
-0.161236 -0.020036 0.008071 124 100 130
0.088806 0.053951 -0.175076 134 100 120
-0.172142 0.064775 -0.114602 135 100 119
-0.169517 0.061337 0.265411 135 100 119
-0.222512 0.006692 -0.111529 128 100 126
-0.207845 0.048687 -0.196663 133 100 121
0.108412 0.098129 0.232446 140 100 114
-0.081204 0.055464 0.178857 134 100 120
-0.358802 0.030764 0.075004 131 100 123
-0.195524 0.012749 -0.021323 129 100 125
0.103095 0.056996 -0.203157 134 100 120
-0.169560 0.074955 -0.102267 137 100 117
0.151520 0.057537 0.130829 134 100 120
0.151701 0.032298 0.140644 131 100 123
-0.277459 0.095502 -0.087812 139 100 115
0.195815 0.061363 -0.085387 135 100 119
0.186359 0.048883 0.208373 133 100 121
0.075196 0.008790 0.049878 128 100 126
0.196545 0.122690 0.062669 143 100 111
-0.216582 0.037212 -0.234440 132 100 122
0.109269 0.032925 -0.223498 131 100 123
-0.261547 0.001047 -0.026096 127 100 127
-0.135300 0.045494 0.031272 133 100 121
-0.123574 0.069863 -0.243103 136 100 118
0.002164 -0.006276 -0.148107 126 100 128
-0.130184 0.068150 0.017169 136 100 118
-0.035765 -0.030708 0.236588 123 100 131
0.476992 -0.428345 0.131830 72 100 182
0.096070 0.046728 0.200024 133 100 121
-0.258513 0.031337 0.184314 131 100 123
-0.316409 0.049683 -0.201085 133 100 121
-0.010743 0.054222 -0.267697 134 100 120
0.196797 0.015260 0.136136 129 100 125
-0.025116 0.146132 -0.284840 146 100 108
0.044184 0.042371 0.259186 132 100 122
0.071310 -0.408306 0.596119 75 100 179
0.180143 0.030665 0.161834 131 100 123
-0.200575 0.035164 0.339167 131 100 123
-0.078375 0.065307 -0.504286 135 100 119
0.151108 0.069345 0.173524 136 100 118
-0.247414 0.090871 0.104496 139 100 115
-0.521290 -0.118247 0.150923 112 100 142
0.365810 -0.494384 0.025054 64 100 190
0.188246 0.083399 0.168184 138 100 116
-0.083808 0.045471 0.132004 133 100 121
0.034266 0.020746 -0.224114 130 100 124
-0.009556 0.031433 0.284176 131 100 123
-0.178445 0.216206 -0.391852 155 100 99
-0.201843 -0.016004 -0.249056 125 100 129
0.233741 0.000100 0.042298 127 100 127
0.098805 0.011684 0.206921 128 100 126
-0.044413 0.057617 -0.241424 134 100 120
0.445680 -0.577283 0.331258 53 100 201
-0.229844 0.014045 0.047024 129 100 125
0.265566 0.034721 0.127504 131 100 123
0.030299 0.060400 -0.241511 135 100 119
0.294629 0.045816 -0.002502 133 100 121
-0.044983 0.037583 0.175569 132 100 122
-0.221522 0.042101 -0.226274 132 100 122
-0.190312 0.024035 -0.070699 130 100 124
0.213583 0.097478 0.106515 139 100 115
-0.175590 0.011322 -0.208385 128 100 126
-0.041981 0.090230 -0.125472 139 100 115
0.490053 -0.059394 -0.114976 119 100 135
-0.202555 0.049962 -0.076266 133 100 121
-0.165507 0.019566 0.119885 129 100 125
-0.187826 -0.047862 0.039198 121 100 133
-0.174816 0.037429 -0.225898 132 100 122
0.278298 0.052282 -0.014025 134 100 120
0.084773 0.008779 -0.256422 128 100 126
-0.106997 -0.000357 -0.248999 127 100 127
-0.191155 0.024434 -0.144767 130 100 124
-0.224182 0.054096 0.233422 134 100 120
-0.213971 0.054477 0.115429 134 100 120
-0.024226 0.020637 0.242326 130 100 124
-0.214641 0.135595 -0.308459 144 100 110
-0.019966 0.035686 -0.160394 132 100 122
0.122766 0.042953 -0.091561 132 100 122
-0.273216 0.001047 0.156925 127 100 127
-0.289890 -0.027806 -0.092379 123 100 131
0.204606 -0.062687 0.201515 119 100 135
-0.192977 0.010749 0.177565 128 100 126
-0.163987 0.101356 0.154369 140 100 114
-0.223818 0.044542 -0.122760 133 100 121
0.373556 -0.095692 -0.400140 115 100 139
0.079469 0.115634 -0.276179 142 100 112
-0.189483 0.023988 0.085207 130 100 124
0.088591 -0.001032 0.204125 127 100 127
0.199495 0.038216 -0.015275 132 100 122
0.293197 -0.139196 0.048698 109 100 145
0.434831 -0.104632 -0.388548 114 100 140
0.330572 0.060203 -0.217294 135 100 119
0.146203 0.072428 -0.121567 136 100 118
-0.170053 -0.046350 -0.301865 121 100 133
-0.371309 0.018905 0.138056 129 100 125
-0.237031 0.004792 -0.179614 128 100 126
-0.090902 0.077478 -0.237271 137 100 117
0.261923 0.040493 0.006538 132 100 122
0.027597 -0.046946 0.303088 121 100 133
-0.112670 0.025757 0.215759 130 100 124
-0.151833 0.067107 0.219529 136 100 118
0.379455 0.088675 -0.102601 138 100 116
-0.135514 0.123601 -0.231491 143 100 111
-0.088132 0.005993 -0.258033 128 100 126
0.215272 0.155687 -0.251929 147 100 107
0.045720 0.045012 0.203283 133 100 121
-0.264274 -0.018231 -0.065375 125 100 129
0.113956 0.064548 -0.294079 135 100 119
-0.024590 0.108650 0.330653 141 100 113
0.223550 -0.374097 0.467735 79 100 175
0.131646 0.012644 -0.093920 129 100 125
-0.258642 0.053350 0.101025 134 100 120
-0.123409 -0.012350 0.036511 125 100 129
-0.164134 -0.008273 0.228110 126 100 128
-0.256164 0.054724 -0.123266 134 100 120
-0.017506 0.049142 0.321461 133 100 121
0.217759 0.094274 -0.010429 139 100 115
-0.251623 -0.019596 0.292618 125 100 129
0.259415 0.043270 0.223964 133 100 121
0.048190 0.055650 -0.014384 134 100 120
0.323918 0.087482 -0.321969 138 100 116
-0.179857 0.036938 0.004627 132 100 122
0.497638 -0.649743 -0.112644 44 100 210
0.061849 0.057543 0.179936 134 100 120
-0.323024 0.005742 0.026560 128 100 126
-0.191627 0.040009 -0.171638 132 100 122
0.035666 0.015737 0.219827 129 100 125
-0.044534 0.030173 0.253125 131 100 123
0.332669 0.208038 -0.142622 154 100 100
0.242937 0.025052 0.046726 130 100 124
0.101468 -0.029978 0.145314 123 100 131
0.297370 0.219986 -0.014055 155 100 99
0.110541 0.029452 -0.027287 131 100 123
0.274002 0.075465 0.029970 137 100 117
-0.261810 0.006814 -0.138325 128 100 126
0.253309 0.083356 -0.019766 138 100 116
-0.001184 0.080479 0.352338 137 100 117
0.147774 0.025988 -0.058581 130 100 124
0.093617 -0.000988 0.316659 127 100 127
0.409159 0.081296 0.096384 137 100 117
0.224434 0.071373 -0.010818 136 100 118
0.013991 0.027554 -0.029452 131 100 123
0.157404 0.017651 -0.239640 129 100 125
0.153744 0.059457 -0.161837 135 100 119
0.004000 0.057098 0.223280 134 100 120
-0.216396 0.046546 -0.124533 133 100 121
-0.226971 0.018503 -0.106864 129 100 125
0.191117 0.069426 0.343686 136 100 118
0.245331 0.013228 -0.235431 129 100 125
-0.161754 -0.046634 0.201364 121 100 133
-0.190533 0.082045 -0.109124 137 100 117
-0.258785 0.073586 -0.093409 136 100 118
0.200907 -0.005537 0.289712 126 100 128
0.166158 0.057286 0.057629 134 100 120
0.043054 0.111618 0.243659 141 100 113
-0.106236 0.042613 -0.155262 132 100 122
-0.046954 0.030546 -0.116621 131 100 123
-0.201533 0.001409 0.198613 127 100 127
0.116642 0.063508 -0.352545 135 100 119
-0.277205 -0.010157 0.106069 126 100 128
-0.216326 0.055672 0.125525 134 100 120
0.251713 0.085474 0.097782 138 100 116
-0.242881 0.079732 -0.064072 137 100 117
0.026673 -0.017970 0.305539 125 100 129
0.207234 0.028107 -0.142104 131 100 123
-0.375423 -0.485498 -0.295659 65 100 189
0.063989 0.158955 -0.319256 147 100 107
-0.014684 -0.100473 0.426070 114 100 140
0.229652 -0.007365 -0.038550 126 100 128
-0.250836 0.056572 -0.132082 134 100 120
-0.135884 0.086393 -0.140695 138 100 116
-0.067345 0.109949 0.266424 141 100 113
0.163969 0.022167 0.174927 130 100 124
-0.276038 -0.002247 -0.120492 127 100 127
-0.161707 0.021261 -0.136156 130 100 124
-0.023268 -0.126306 0.484092 111 100 143
0.084085 0.056034 0.249180 134 100 120
0.094668 0.084740 0.122331 138 100 116
-0.201249 0.019093 0.030283 129 100 125
-0.229991 0.014120 0.248470 129 100 125
-0.333351 0.006824 -0.001389 128 100 126
-0.050421 -0.064680 0.239140 119 100 135
-0.198920 -0.009340 0.112466 126 100 128
0.093430 0.016006 -0.428456 129 100 125
0.273767 0.783073 -0.181806 227 100 27
-0.120721 0.087687 0.332348 138 100 116
0.195629 0.077202 -0.043909 137 100 117
0.140429 0.082861 -0.203598 138 100 116
0.266013 0.221036 -0.253840 155 100 99
0.135684 0.049264 -0.134183 133 100 121
-0.067703 -0.014126 0.169669 125 100 129
-0.395210 -0.262997 -0.480678 93 100 161
-0.088119 0.093731 0.259684 139 100 115
-0.176453 0.014122 0.023572 129 100 125
0.269717 -0.010004 0.228574 126 100 128
-0.153030 0.037520 -0.018924 132 100 122
0.300132 0.509691 0.398715 192 100 62
-0.249055 0.047959 -0.079559 133 100 121
-0.232669 0.063718 0.140317 135 100 119
0.223238 0.068758 0.137462 136 100 118
0.105095 0.042483 -0.188113 132 100 122
0.261273 0.012051 0.198644 129 100 125
-0.179791 -0.000509 -0.163381 127 100 127
0.362840 -0.712271 0.123911 36 100 218
0.152928 0.029486 0.153890 131 100 123
0.161080 0.018539 0.297001 129 100 125
-0.253164 0.056589 -0.070461 134 100 120
-0.052568 0.023505 0.326316 130 100 124
-0.088131 0.036990 0.165115 132 100 122
0.023665 0.068978 -0.193130 136 100 118
0.568660 -0.186670 0.070246 103 100 151
-0.062342 0.072597 -0.221558 136 100 118
0.392132 0.600720 0.158363 204 100 50
-0.233740 0.042723 0.061907 132 100 122
-0.081521 0.079133 -0.148244 137 100 117
-0.118175 -0.009855 -0.214346 126 100 128
0.158834 0.049462 -0.078539 133 100 121
0.160133 -0.039691 -0.346092 122 100 132
0.014331 0.015879 -0.333067 129 100 125
0.255704 0.033404 0.121543 131 100 123
-0.212952 0.046127 -0.170048 133 100 121
0.262678 0.071387 -0.042988 136 100 118
0.100835 -0.021332 -0.329555 124 100 130
0.034510 0.051350 -0.296360 134 100 120
-0.224077 0.007307 -0.156783 128 100 126
-0.122946 0.047325 0.204931 133 100 121
-0.190398 0.087552 0.168235 138 100 116
-0.458585 -0.084627 -0.321983 116 100 138
0.006184 0.117460 -0.300980 142 100 112
0.227101 0.011570 0.078889 128 100 126
0.057527 0.021989 0.270124 130 100 124
-0.080634 -0.007417 -0.061147 126 100 128
-0.186266 0.081527 0.269809 137 100 117
0.184235 0.046057 -0.013692 133 100 121
-0.027277 0.032845 0.182051 131 100 123
0.093539 0.032216 -0.176216 131 100 123
-0.117813 0.007432 -0.057304 128 100 126
0.150740 0.075743 -0.148250 137 100 117
-0.232131 0.008358 0.169022 128 100 126
-0.146621 0.033344 -0.413630 131 100 123
0.124871 0.072753 -0.009653 136 100 118
-0.320337 0.073545 -0.194298 136 100 118
0.302511 0.063272 0.031006 135 100 119
0.008471 0.064016 0.206897 135 100 119
0.207612 0.001597 0.082982 127 100 127
-0.238872 0.031741 -0.132586 131 100 123
-0.283068 0.060392 -0.241511 135 100 119
0.067778 0.033945 0.251356 131 100 123
-0.090750 -0.019156 -0.139295 125 100 129
-0.068982 0.045221 0.206827 133 100 121
-0.185277 0.095956 -0.212684 139 100 115
0.298977 0.019167 0.175205 129 100 125
0.118331 0.007794 -0.249121 128 100 126
0.191991 0.037714 0.212252 132 100 122
-0.156836 0.058120 -0.202434 134 100 120
-0.503547 -0.057027 -0.161041 120 100 134
-0.490687 -0.367614 0.215556 80 100 174
-0.095398 -0.007663 0.169909 126 100 128
-0.154624 0.001076 0.129848 127 100 127
0.225105 0.080845 0.024057 137 100 117
-0.039040 0.059493 -0.297149 135 100 119
-0.277235 0.217794 -0.134815 155 100 99
0.398413 -0.413823 -0.110548 74 100 180
0.074936 0.675108 0.381171 213 100 41
0.080918 0.079881 0.311426 137 100 117
-0.086194 -0.013412 -0.196201 125 100 129
-0.231265 0.065012 0.136527 135 100 119
-0.260556 0.042000 0.086005 132 100 122
-0.140564 0.055556 -0.045087 134 100 120
0.237562 0.016912 0.159600 129 100 125
-0.097254 0.036466 -0.249784 132 100 122
-0.241652 0.041068 0.051595 132 100 122
-0.103019 0.025792 -0.232429 130 100 124
0.221589 0.033865 -0.091845 131 100 123
0.249467 0.082537 0.148299 138 100 116
-0.025452 0.051544 -0.097883 134 100 120
-0.280818 -0.048773 0.204099 121 100 133
-0.410240 -0.778837 0.275181 28 100 226
-0.256178 0.101897 -0.091275 140 100 114
0.197618 0.049503 -0.158124 133 100 121
0.004485 0.086612 -0.300796 138 100 116
-0.208862 0.086277 -0.044915 138 100 116
-0.242082 -0.009452 -0.139377 126 100 128
0.163628 0.043205 0.007865 133 100 121
-0.317748 0.090683 -0.118454 139 100 115
-0.223135 0.065959 0.142945 135 100 119
0.197554 0.048714 0.270441 133 100 121
0.139446 0.033848 0.159540 131 100 123
0.083143 0.073337 -0.275460 136 100 118
0.282195 0.076819 -0.114626 137 100 117
-0.269604 0.037344 0.148210 132 100 122
-0.164578 0.088598 -0.290487 138 100 116
0.263693 0.037579 0.004991 132 100 122
-0.211394 0.047566 0.116865 133 100 121
0.194621 0.018221 0.233136 129 100 125
0.154973 0.045773 -0.193251 133 100 121
-0.008929 0.065859 0.337630 135 100 119
-0.013828 0.050452 -0.187386 133 100 121
-0.270724 -0.015334 0.287780 125 100 129
0.128709 0.046678 -0.238909 133 100 121
-0.097764 0.083245 -0.173140 138 100 116
-0.324928 0.014507 -0.254695 129 100 125
0.177096 -0.025052 0.007678 124 100 130
0.276909 0.093341 -0.022045 139 100 115
-0.115571 -0.033652 0.275554 123 100 131
-0.280884 -0.020897 -0.133112 124 100 130
0.181231 0.061546 -0.211228 135 100 119
-0.150967 0.039240 -0.069061 132 100 122
0.097501 -0.006962 0.006015 126 100 128
0.002072 0.006265 -0.336221 128 100 126
0.181098 0.030936 -0.065484 131 100 123
-0.037863 0.105134 -0.203070 140 100 114
0.247388 0.024099 0.066538 130 100 124
0.049362 0.053318 -0.319026 134 100 120
0.106026 0.103713 0.222685 140 100 114
0.021180 0.070819 0.180210 136 100 118
0.188265 0.027717 -0.046474 131 100 123
0.012591 0.073242 -0.025607 136 100 118
-0.134436 0.050714 0.031566 133 100 121
0.166134 0.628644 -0.244682 207 100 47
0.150918 0.066783 0.042099 136 100 118
-0.120845 0.116996 0.154171 142 100 112
-0.201752 0.055221 -0.214469 134 100 120
-0.510712 -0.340204 -0.065194 84 100 170
-0.088342 -0.048651 -0.156628 121 100 133
0.098498 0.022482 0.233984 130 100 124
0.245892 0.067552 0.116912 136 100 118
-0.109271 -0.004939 -0.086314 126 100 128
0.215879 0.013041 -0.169839 129 100 125
0.151143 0.090575 -0.321465 139 100 115
0.093837 0.051530 0.176746 134 100 120
0.181158 0.014772 0.249876 129 100 125
-0.191583 0.071997 0.056772 136 100 118
0.379968 -0.780801 -0.413200 27 100 227
0.067971 0.013587 0.093645 129 100 125
-0.162021 0.060245 -0.151319 135 100 119
-0.018096 0.037369 -0.035615 132 100 122
0.132285 -0.008742 0.167134 126 100 128
-0.171618 0.039779 0.103654 132 100 122
-0.148204 0.059680 -0.007386 135 100 119
0.183184 0.083582 -0.021575 138 100 116
-0.107283 0.052692 0.191681 134 100 120
0.165440 0.100793 0.188881 140 100 114
-0.009277 0.017749 -0.204293 129 100 125
0.166462 0.011679 -0.013188 128 100 126
0.025911 0.047231 -0.238309 133 100 121
0.149088 0.064989 -0.070421 135 100 119
0.096129 -0.014383 0.244651 125 100 129
0.177275 0.073536 -0.108124 136 100 118
-0.025587 0.025001 0.363115 130 100 124
0.093473 -0.022430 0.155968 124 100 130
0.129285 -0.060600 -0.171233 119 100 135
-0.055147 -0.008021 0.238193 126 100 128
0.213482 0.045819 0.244290 133 100 121
-0.206721 0.017966 -0.027555 129 100 125
0.167244 0.086687 0.195359 138 100 116
0.250929 0.059145 -0.071030 135 100 119
0.233979 0.062420 -0.000849 135 100 119
0.131705 0.025412 -0.099690 130 100 124
0.063232 0.106497 0.294044 141 100 113
-0.225275 -0.012904 0.140436 125 100 129
0.105175 0.121456 -0.200056 142 100 112
-0.090859 0.023953 0.209004 130 100 124
-0.253204 0.009968 -0.006039 128 100 126
0.026267 0.040968 -0.046752 132 100 122
-0.111362 0.076165 0.058874 137 100 117
0.124932 0.043720 -0.031836 133 100 121
0.122254 0.046610 0.151989 133 100 121
-0.199048 0.022628 0.132660 130 100 124
0.262072 -0.028111 0.268733 123 100 131
0.278594 0.076312 -0.066036 137 100 117
0.086185 0.002235 -0.018178 127 100 127
0.173797 -0.643853 0.590483 45 100 209
0.053252 -0.017605 -0.263934 125 100 129
-0.145692 0.078615 -0.035829 137 100 117
0.235802 0.064036 -0.148336 135 100 119
-0.130823 -0.025164 0.123266 124 100 130
0.069590 0.066834 -0.068095 136 100 118
-0.303849 -0.324920 -0.376553 86 100 168
0.128443 0.081231 -0.092250 137 100 117
-0.177800 0.007191 -0.048093 128 100 126
-0.238416 0.036067 0.043332 132 100 122
-0.163763 0.067686 0.206250 136 100 118
0.162991 0.070245 0.209097 136 100 118
-0.021342 0.031295 0.193260 131 100 123
-0.213298 -0.003162 -0.035234 127 100 127
-0.194302 0.008571 -0.103535 128 100 126
-0.150555 -0.000039 0.160652 127 100 127
-0.276574 0.030689 0.019240 131 100 123
-0.040243 0.047132 0.226768 133 100 121
-0.083280 -0.013006 -0.214740 125 100 129
0.136535 0.071533 -0.292892 136 100 118
-0.011599 0.042553 -0.225618 132 100 122
-0.182862 -0.005147 -0.137859 126 100 128
-0.173948 0.003916 -0.110417 127 100 127
-0.296995 0.032225 -0.009900 131 100 123
-0.312032 0.311834 -0.350410 167 100 87
-0.056330 0.042845 0.251131 132 100 122
0.071563 0.138950 0.201681 145 100 109
-0.140598 0.022963 -0.211531 130 100 124
-0.262863 0.062792 -0.131278 135 100 119
-0.152869 0.055494 0.143624 134 100 120
-0.357382 0.556800 -0.097217 198 100 56
-0.229875 0.023134 0.073154 130 100 124
-0.190680 0.074652 0.065704 137 100 117
0.031201 0.039117 -0.117680 132 100 122
-0.104952 0.075206 0.026860 137 100 117
0.228159 -0.007097 -0.195027 126 100 128
0.163232 0.042693 -0.066485 132 100 122
-0.205208 -0.004303 0.190785 126 100 128
-0.074107 0.045300 -0.196266 133 100 121
-0.142961 0.114830 0.128503 142 100 112
-0.198969 0.076404 -0.024560 137 100 117
0.258875 0.058583 -0.171740 134 100 120
-0.238890 0.109774 -0.000844 141 100 113
0.391885 -0.797569 0.502990 25 100 229
0.237568 0.032502 -0.247079 131 100 123
0.163015 -0.068774 0.231825 118 100 136
0.016518 0.039114 0.251893 132 100 122
0.003838 0.080418 0.250277 137 100 117
-0.083176 -0.013729 -0.237870 125 100 129
-0.098591 -0.032585 0.193368 123 100 131
0.156985 0.088689 -0.085603 138 100 116
0.086848 -0.013743 0.201249 125 100 129
0.010184 0.057633 -0.295282 134 100 120
0.158555 0.088998 0.035875 138 100 116
-0.240358 0.048550 -0.062770 133 100 121
0.127851 0.018932 0.194215 129 100 125
0.039894 0.094602 0.247163 139 100 115
0.103523 0.126865 -0.272737 143 100 111
-0.019894 0.028816 -0.186812 131 100 123
0.177540 0.025199 -0.099202 130 100 124
-0.126221 0.019544 -0.272579 129 100 125
0.134056 0.033669 0.120939 131 100 123
0.174797 0.014746 0.235413 129 100 125
0.240051 0.019092 0.072439 129 100 125
-0.194466 0.045349 0.210320 133 100 121
0.110615 -0.018279 0.284575 125 100 129
0.274501 -0.342816 -0.282403 83 100 171
-0.202890 0.037486 -0.146015 132 100 122
-0.081407 -0.002302 -0.228141 127 100 127
-0.313143 -0.007841 0.013008 126 100 128
-0.069547 0.043317 0.018930 133 100 121
-0.240962 0.084851 0.029896 138 100 116
-0.095415 0.026405 -0.177915 130 100 124
0.237723 0.114340 0.018767 142 100 112
-0.146776 0.012630 -0.161093 129 100 125
-0.118882 0.042117 0.163163 132 100 122
-0.042835 0.062071 0.131893 135 100 119
-0.115580 0.039279 0.127715 132 100 122
0.207394 0.110702 -0.073277 141 100 113
0.229066 0.114908 -0.103255 142 100 112
0.195725 -0.012980 -0.140844 125 100 129
-0.164169 0.043205 0.179103 133 100 121
0.216088 0.036169 0.208492 132 100 122
0.245229 0.007202 0.061935 128 100 126
-0.488864 -0.372494 0.150499 80 100 174
0.139634 0.036205 -0.146991 132 100 122
-0.133236 0.028116 -0.153117 131 100 123
0.094794 0.019944 -0.278143 130 100 124
-0.351318 0.025429 -0.124458 130 100 124
0.082922 0.065105 0.177805 135 100 119
-0.278254 0.043018 0.036229 132 100 122
-0.272809 0.041806 0.065690 132 100 122
-0.126379 -0.012352 0.114777 125 100 129
0.158692 0.062182 -0.058932 135 100 119
-0.177149 0.124595 0.329132 143 100 111
-0.234212 -0.007387 0.341613 126 100 128
-0.166793 0.033569 -0.006563 131 100 123
-0.035291 0.009531 -0.083042 128 100 126
-0.205452 0.073421 -0.083556 136 100 118
0.142506 0.051568 0.253255 134 100 120
-0.160946 0.015142 0.103238 129 100 125
-0.109481 -0.006029 0.166045 126 100 128
0.001781 0.088559 -0.206524 138 100 116
0.162508 0.035346 0.093341 132 100 122
-0.089225 -0.000316 -0.323310 127 100 127
0.080389 0.089185 0.262578 138 100 116
-0.269962 0.072429 -0.110730 136 100 118
0.277781 -0.010391 0.247005 126 100 128
-0.154079 0.073120 0.289841 136 100 118
-0.111497 0.056287 -0.134659 134 100 120
-0.279994 -0.031826 0.251229 123 100 131
-0.271634 0.002627 -0.144801 127 100 127
0.150875 0.042535 0.106394 132 100 122
0.206897 0.082212 0.088128 137 100 117
0.451863 -0.149439 0.304778 108 100 146
0.008487 0.036139 -0.270710 132 100 122
-0.191740 0.094701 0.312666 139 100 115
-0.077152 0.044482 0.199242 133 100 121
0.430455 0.136551 -0.182109 144 100 110
-0.283009 0.046327 -0.150203 133 100 121
-0.202614 0.018244 0.197654 129 100 125
0.280566 0.045875 0.213345 133 100 121
-0.012489 0.044072 0.173575 133 100 121
0.159394 0.006540 0.225670 128 100 126
-0.121652 -0.010512 0.165500 126 100 128
0.344081 -0.306266 0.164365 88 100 166
-0.202966 0.056935 0.168498 134 100 120
-0.091633 0.064152 0.242718 135 100 119
-0.221837 0.039065 -0.129202 132 100 122
0.065304 0.053734 0.285555 134 100 120
-0.184967 0.019367 0.104645 129 100 125
-0.004358 0.094489 -0.375595 139 100 115
-0.058425 0.065422 0.228166 135 100 119
0.383163 -0.676721 -0.278553 41 100 213
0.178022 0.002780 0.385623 127 100 127
-0.196064 0.057396 -0.006619 134 100 120
-0.258417 -0.256206 -0.421667 94 100 160
-0.137052 0.062148 0.238846 135 100 119
0.336891 0.425756 -0.438690 181 100 73
-0.319875 0.140180 0.066066 145 100 109
-0.263287 0.059248 0.195717 135 100 119
0.136866 0.038912 -0.186084 132 100 122
-0.100572 0.123855 -0.140911 143 100 111
0.193381 -0.032208 0.186112 123 100 131
0.256063 0.072339 0.054251 136 100 118
-0.200602 -0.032543 -0.120241 123 100 131
-0.118509 0.034652 0.188776 131 100 123
0.217822 0.054605 -0.109415 134 100 120
-0.082007 0.049361 0.015999 133 100 121
0.165932 0.060973 0.084206 135 100 119
-0.165818 0.046392 0.211429 133 100 121
-0.136451 0.070944 -0.233314 136 100 118
-0.173991 0.053644 -0.214929 134 100 120
-0.280013 -0.051612 -0.250266 120 100 134
-0.078077 -0.065369 -0.312837 119 100 135
-0.021094 0.023536 -0.285335 130 100 124
-0.049867 0.022333 0.242020 130 100 124
-0.024431 0.081637 -0.207707 137 100 117
