ply
format ascii 1.0
element vertex 1190
property float x
property float y
property float z
property uchar red
property uchar green
property uchar blue
end_header
-0.125217 0.064800 0.250775 135 100 119
0.170344 0.004426 0.094595 128 100 126
0.010736 -0.745353 0.535504 32 100 222
0.137157 0.035448 -0.252538 132 100 122
-0.130875 0.078753 -0.229768 137 100 117
-0.144266 0.009815 -0.205619 128 100 126
-0.106801 0.065796 0.196980 135 100 119
-0.081006 0.092299 0.025833 139 100 115
-0.171427 -0.029118 -0.207518 123 100 131
0.166631 0.050288 -0.100312 133 100 121
-0.050267 0.066232 -0.064904 135 100 119
-0.067743 0.044039 -0.014491 133 100 121
0.178061 0.007195 -0.144332 128 100 126
0.042664 0.000019 -0.209932 127 100 127
-0.002861 -0.002116 -0.057248 127 100 127
-0.241439 -0.143971 -0.178487 109 100 145
-0.181756 0.047413 -0.029466 133 100 121
0.121214 -0.004021 0.135439 126 100 128
-0.147818 0.046409 -0.205168 133 100 121
0.174165 0.061885 -0.192420 135 100 119
-0.126380 0.006240 0.326556 128 100 126
0.272120 0.086532 0.012787 138 100 116
0.173632 0.001342 0.333338 127 100 127
-0.087568 0.347351 0.308850 171 100 83
0.065341 0.023139 0.167289 130 100 124
-0.138114 0.035643 -0.171119 132 100 122
0.182234 0.084009 0.433428 138 100 116
0.049861 0.066204 0.258667 135 100 119
0.224182 0.092162 -0.137234 139 100 115
-0.031075 0.102977 0.305400 140 100 114
0.207712 0.107165 0.115952 141 100 113
0.006849 0.014834 0.155396 129 100 125
0.036098 0.029628 -0.053691 131 100 123
-0.116701 0.042531 -0.073097 132 100 122
0.133579 -0.012564 0.204954 125 100 129
-0.134819 0.018094 -0.176385 129 100 125
0.099021 0.140359 0.257847 145 100 109
0.203665 0.099543 -0.040419 140 100 114
-0.065317 0.056648 0.163678 134 100 120
0.298117 0.101566 0.212298 140 100 114
0.238128 0.037816 0.048650 132 100 122
-0.194736 0.055058 -0.186008 134 100 120
0.217943 0.006532 -0.051903 128 100 126
0.301239 0.039846 -0.072389 132 100 122
-0.062212 0.067581 0.318801 136 100 118
-0.196204 0.078204 -0.143854 137 100 117
0.329536 0.069059 0.040989 136 100 118
-0.123283 0.072877 0.262763 136 100 118
-0.175639 -0.019351 -0.195514 125 100 129
-0.055718 0.034422 0.247679 131 100 123
0.294536 0.072038 -0.006113 136 100 118
-0.031696 0.013956 -0.202479 129 100 125
0.157726 0.027114 0.263353 130 100 124
-0.184634 0.018540 0.072105 129 100 125
-0.036984 0.000994 -0.231511 127 100 127
0.070414 0.037906 -0.230902 132 100 122
-0.083028 -0.670233 0.535546 42 100 212
-0.117089 0.650980 0.327021 210 100 44
-0.211898 0.071527 0.052948 136 100 118
0.152570 0.119031 0.271441 142 100 112
-0.174905 0.049123 -0.178459 133 100 121
0.006782 0.080772 -0.205933 137 100 117
-0.221820 0.013764 0.053344 129 100 125
0.099357 -0.000748 -0.247603 127 100 127
0.025272 0.042694 0.198071 132 100 122
-0.227351 0.043707 0.090723 133 100 121
0.304546 0.059474 -0.111615 135 100 119
0.128862 0.069711 -0.023476 136 100 118
0.100486 0.032569 0.146231 131 100 123
-0.029883 0.033221 0.178679 131 100 123
0.082717 0.062130 -0.023039 135 100 119
0.212049 0.083023 -0.112993 138 100 116
-0.233019 0.045000 -0.005943 133 100 121
0.127828 0.042445 -0.068808 132 100 122
-0.190331 -0.047769 -0.074407 121 100 133
0.257250 0.065899 -0.027238 135 100 119
-0.168083 0.012572 0.189447 129 100 125
-0.248027 0.004787 -0.102542 128 100 126
0.225073 -0.301416 -0.264167 89 100 165
0.301632 0.063596 -0.058480 135 100 119
-0.095052 0.021023 0.157254 130 100 124
-0.072307 0.021010 0.060009 130 100 124
0.030760 0.094812 -0.261221 139 100 115
-0.186351 0.023821 -0.162156 130 100 124
-0.138829 0.025506 0.224633 130 100 124
0.011467 -0.028551 0.110354 123 100 131
0.099890 0.038899 0.214791 132 100 122
-0.207821 -0.002636 0.068643 127 100 127
-0.263089 0.006396 0.082360 128 100 126
-0.406989 -0.748144 -0.116003 32 100 222
0.061932 0.087964 -0.225566 138 100 116
-0.272231 0.048461 -0.094490 133 100 121
-0.057117 -0.018261 0.293914 125 100 129
0.091374 0.022398 -0.253750 130 100 124
-0.147478 0.047114 0.072785 133 100 121
0.172305 0.007269 -0.007956 128 100 126
0.036408 0.085308 -0.352028 138 100 116
-0.033122 0.063183 -0.176400 135 100 119
0.090175 0.020325 -0.194895 130 100 124
-0.053639 0.068207 -0.208129 136 100 118
-0.451788 -0.454908 -0.279250 69 100 185
0.225310 -0.015660 0.009568 125 100 129
-0.160998 -0.013121 -0.008794 125 100 129
-0.146445 0.026708 -0.172230 130 100 124
0.111867 -0.008411 -0.130733 126 100 128
-0.079984 -0.000252 -0.176618 127 100 127
-0.321334 -0.013519 -0.029373 125 100 129
0.286797 0.064622 0.124372 135 100 119
-0.279797 0.009280 -0.016317 128 100 126
0.046027 0.002658 0.259640 127 100 127
0.025814 0.041505 0.206958 132 100 122
-0.082828 0.017306 0.263447 129 100 125
0.130258 0.001715 -0.150272 127 100 127
-0.145162 0.036923 -0.053609 132 100 122
0.182020 0.056750 -0.156500 134 100 120
0.221617 0.020194 0.059023 130 100 124
0.188332 -0.026835 -0.099808 124 100 130
-0.053219 -0.006833 -0.080240 126 100 128
-0.197408 -0.001399 -0.001131 127 100 127
-0.251905 0.101850 -0.005900 140 100 114
0.127460 0.029669 0.048670 131 100 123
0.256578 0.057513 0.141579 134 100 120
-0.045429 0.028599 0.263196 131 100 123
-0.096027 0.010691 0.052600 128 100 126
-0.135241 -0.014032 0.298297 125 100 129
0.158825 0.111160 -0.018554 141 100 113
-0.160829 -0.005916 0.037160 126 100 128
-0.056903 0.264312 0.375915 161 100 93
-0.195773 0.064132 -0.210501 135 100 119
0.085199 0.024530 -0.146851 130 100 124
0.177386 0.111611 -0.075291 141 100 113
0.057950 0.018001 -0.085330 129 100 125
-0.097432 0.003873 0.166728 127 100 127
0.202719 0.093941 -0.070777 139 100 115
-0.086620 -0.053691 -0.336536 120 100 134
-0.190507 -0.014134 -0.210634 125 100 129
0.096506 0.037274 0.163210 132 100 122
-0.294101 0.007616 -0.033007 128 100 126
-0.200750 0.057076 -0.158957 134 100 120
0.095562 0.004609 0.321685 128 100 126
0.066965 -0.019582 0.196491 125 100 129
0.151829 -0.016319 -0.136836 125 100 129
0.082910 0.036240 0.223599 132 100 122
-0.047337 0.839586 0.352532 234 100 20
-0.031717 0.003706 -0.179328 127 100 127
0.056397 0.123353 -0.215474 143 100 111
-0.326614 -0.268966 -0.235375 93 100 161
0.119725 0.028225 0.050176 131 100 123
0.143577 0.043476 0.047939 133 100 121
-0.217884 -0.011715 -0.061916 126 100 128
-0.203231 0.016858 0.106892 129 100 125
0.106940 0.076656 0.116471 137 100 117
0.244717 -0.024040 -0.109433 124 100 130
-0.159225 0.024602 -0.185618 130 100 124
-0.199619 0.036848 -0.085116 132 100 122
0.032077 0.032924 0.144470 131 100 123
0.164830 0.077564 -0.253162 137 100 117
-0.099177 0.058104 0.197267 134 100 120
-0.027891 -0.004126 0.193548 126 100 128
0.009558 0.069265 0.168068 136 100 118
-0.430301 0.042829 -0.042846 132 100 122
-0.170829 -0.031510 0.133228 123 100 131
0.181257 0.006817 0.079355 128 100 126
-0.237345 0.024928 0.144273 130 100 124
0.017950 0.028215 0.009364 131 100 123
-0.162880 0.080754 0.098671 137 100 117
-0.071413 0.035664 -0.351397 132 100 122
0.112618 0.020195 0.086098 130 100 124
0.213191 0.063195 -0.078503 135 100 119
0.163458 0.029166 0.169636 131 100 123
0.106128 -0.004154 -0.204879 126 100 128
0.117074 0.084614 -0.130254 138 100 116
0.038164 -0.027989 -0.082847 123 100 131
-0.122190 0.022946 -0.169391 130 100 124
-0.247386 0.034774 0.174912 131 100 123
-0.111581 0.053259 0.215853 134 100 120
0.114995 0.064509 -0.165176 135 100 119
0.122650 0.034551 0.006631 131 100 123
0.262287 -0.127350 -0.247322 111 100 143
-0.162209 0.041141 -0.148652 132 100 122
-0.055310 0.035768 -0.039464 132 100 122
-0.294048 0.049093 -0.058248 133 100 121
-0.218258 0.043995 0.085303 133 100 121
-0.082217 0.031240 -0.255135 131 100 123
0.072677 0.046109 -0.246068 133 100 121
0.306844 0.640210 0.298566 209 100 45
-0.239866 -0.026093 -0.057584 124 100 130
-0.278292 -0.005591 -0.012986 126 100 128
-0.215048 0.106447 -0.199385 141 100 113
-0.022429 0.072838 -0.252871 136 100 118
-0.085739 0.054483 -0.105677 134 100 120
-0.117931 0.536537 0.232508 195 100 59
-0.241831 0.051099 -0.193760 134 100 120
-0.118853 -0.046598 -0.194996 121 100 133
-0.179251 0.060172 0.088640 135 100 119
-0.202069 0.069270 -0.013743 136 100 118
0.035467 -0.022364 0.192785 124 100 130
-0.205377 -0.004688 -0.212367 126 100 128
-0.190495 0.043263 0.083943 133 100 121
-0.008183 0.062180 -0.115203 135 100 119
-0.183414 -0.102425 -0.287429 114 100 140
-0.216708 0.045019 0.032916 133 100 121
0.048629 0.045932 0.141623 133 100 121
0.136156 0.032813 -0.123302 131 100 123
0.209866 0.073448 0.040903 136 100 118
-0.012279 0.070725 -0.002001 136 100 118
-0.040800 0.131357 0.200362 144 100 110
-0.102182 0.034642 -0.223968 131 100 123
0.407291 -0.076793 0.397914 117 100 137
-0.156965 0.001037 0.111159 127 100 127
0.009264 0.050653 0.270614 133 100 121
0.325242 -0.307952 0.356108 88 100 166
0.209360 0.087095 0.130990 138 100 116
-0.125676 0.033392 0.289274 131 100 123
0.270776 0.036544 0.151344 132 100 122
-0.220265 0.014729 -0.074248 129 100 125
-0.298360 -0.061247 0.370871 119 100 135
-0.076759 0.113871 0.127703 142 100 112
0.209465 0.032587 -0.203860 131 100 123
0.081598 0.057053 0.025206 134 100 120
-0.116694 0.018520 0.180287 129 100 125
0.009493 0.005841 0.080698 128 100 126
-0.191458 0.059378 0.021839 135 100 119
-0.199355 -0.022908 0.093115 124 100 130
0.029157 -0.016245 -0.231802 125 100 129
0.014694 0.036160 -0.222871 132 100 122
-0.221965 0.403261 -0.086904 178 100 76
0.176299 0.105460 -0.123284 140 100 114
-0.069910 -0.006582 0.169946 126 100 128
0.223245 0.010526 -0.412223 128 100 126
-0.259777 -0.008848 0.086887 126 100 128
0.072349 0.069403 0.131639 136 100 118
0.178525 0.092950 -0.290352 139 100 115
-0.124321 0.025240 0.166251 130 100 124
0.193457 0.032671 0.227245 131 100 123
0.391762 -0.647939 -0.356053 44 100 210
-0.202411 0.051147 -0.116447 134 100 120
0.104960 0.061731 -0.185932 135 100 119
-0.184122 0.022062 -0.039373 130 100 124
-0.020566 0.099314 -0.308088 140 100 114
0.084928 0.117598 -0.223678 142 100 112
-0.088979 0.047743 0.152438 133 100 121
0.067579 0.357930 -0.440433 173 100 81
0.140396 0.071214 -0.313686 136 100 118
-0.095287 0.023615 -0.186571 130 100 124
-0.201466 0.051285 0.257572 134 100 120
-0.255797 0.015119 -0.082703 129 100 125
-0.193102 0.028027 0.091375 131 100 123
-0.163236 0.019220 0.103001 129 100 125
0.129702 0.004133 0.253431 128 100 126
-0.408006 0.026091 -0.067793 130 100 124
-0.042303 0.041390 -0.242384 132 100 122
0.367818 -0.728664 0.051377 34 100 220
0.226323 -0.023863 -0.046262 124 100 130
-0.387192 0.304010 0.041024 166 100 88
0.122801 0.055175 -0.054356 134 100 120
-0.043394 0.025695 -0.207303 130 100 124
0.007889 0.049885 0.239528 133 100 121
0.138762 0.016771 0.128597 129 100 125
-0.192267 0.069840 0.177874 136 100 118
0.126557 0.032906 0.155255 131 100 123
-0.016443 0.016249 0.173647 129 100 125
0.340871 -0.097827 0.032278 115 100 139
-0.197340 0.032857 -0.070581 131 100 123
-0.329877 0.053416 0.035992 134 100 120
-0.160933 0.001492 0.323859 127 100 127
-0.176958 0.026191 0.088012 130 100 124
-0.159247 0.053185 -0.075125 134 100 120
0.142859 0.023354 0.249134 130 100 124
0.163832 0.084023 0.099129 138 100 116
-0.000521 0.058176 0.213965 134 100 120
-0.198325 0.015404 -0.090329 129 100 125
-0.213207 -0.039376 0.404194 122 100 132
0.023199 0.099257 -0.300922 140 100 114
-0.271390 0.041053 0.031995 132 100 122
-0.239068 0.043377 -0.014786 133 100 121
0.111385 0.020059 -0.174417 130 100 124
-0.138183 0.046005 0.146791 133 100 121
-0.221428 0.010993 0.161967 128 100 126
-0.242457 0.027783 -0.091002 131 100 123
-0.131359 -0.037551 0.254973 122 100 132
0.246111 0.081064 -0.016986 137 100 117
0.071690 0.031666 0.197732 131 100 123
0.136196 -0.101022 0.551880 114 100 140
-0.021954 0.064016 -0.289730 135 100 119
-0.151131 0.007075 -0.072008 128 100 126
0.003985 -0.027474 0.287798 123 100 131
-0.152162 0.038798 0.128336 132 100 122
0.096883 0.025175 0.142507 130 100 124
-0.258968 0.051133 0.031188 134 100 120
0.290059 0.058586 -0.230742 134 100 120
0.181684 -0.014315 -0.286966 125 100 129
-0.246457 0.050587 0.003100 133 100 121
-0.074270 0.065508 0.001407 135 100 119
0.098578 0.065747 0.173605 135 100 119
0.102697 -0.266151 -0.303858 93 100 161
0.038181 0.072737 0.193333 136 100 118
-0.006451 0.098968 -0.210646 140 100 114
-0.165538 0.004568 0.162583 128 100 126
0.197640 0.043717 0.098068 133 100 121
0.097306 0.044449 -0.249243 133 100 121
-0.145332 0.006997 0.001053 128 100 126
-0.015491 0.047891 0.022352 133 100 121
0.104751 0.019574 -0.039798 129 100 125
-0.084309 0.064094 0.054522 135 100 119
-0.017685 -0.061735 0.259819 119 100 135
0.085261 0.044167 0.118165 133 100 121
0.062960 0.087630 -0.420626 138 100 116
0.078778 0.037401 0.190355 132 100 122
-0.078492 0.133453 -0.206502 144 100 110
0.174960 0.003142 -0.164315 127 100 127
-0.109146 0.105026 -0.086346 140 100 114
-0.204524 0.016153 0.022159 129 100 125
0.110940 0.010794 0.132622 128 100 126
0.332289 0.038829 0.016924 132 100 122
-0.191932 0.019890 -0.153430 130 100 124
-0.284012 0.035633 -0.010525 132 100 122
-0.008745 0.058628 -0.175372 134 100 120
0.192844 0.064390 -0.073952 135 100 119
0.390835 0.032326 0.132730 131 100 123
-0.252766 0.019680 -0.075256 130 100 124
-0.123935 0.030961 0.203844 131 100 123
0.060012 0.013444 0.313438 129 100 125
-0.083572 0.000213 -0.222904 127 100 127
0.153152 -0.033463 0.116184 123 100 131
-0.200753 0.037366 -0.222259 132 100 122
-0.196853 0.037158 0.051835 132 100 122
-0.112353 0.083145 -0.198127 138 100 116
-0.280290 0.359199 0.320042 173 100 81
0.170481 -0.003529 0.254890 127 100 127
0.394899 -0.379623 -0.132045 79 100 175
-0.276737 -0.022855 -0.363212 124 100 130
0.136994 -0.110163 -0.324511 113 100 141
0.084967 0.014362 0.186010 129 100 125
-0.299595 0.041589 -0.132563 132 100 122
-0.178760 0.387630 0.186756 176 100 78
-0.152271 0.063497 0.016102 135 100 119
-0.270072 0.035862 0.226618 132 100 122
0.079256 -0.010506 0.189362 126 100 128
0.133247 0.079099 -0.076539 137 100 117
-0.035975 0.052161 -0.014831 134 100 120
-0.358247 0.053608 0.183805 134 100 120
0.204683 0.029954 0.131311 131 100 123
0.192029 -0.018884 0.197292 125 100 129
0.221080 -0.024841 0.193286 124 100 130
-0.073543 0.004975 -0.235070 128 100 126
-0.372713 -0.079315 -0.140400 117 100 137
0.249480 -0.387482 -0.389780 78 100 176
-0.078960 0.065952 0.292379 135 100 119
-0.399927 -0.081479 -0.180106 117 100 137
0.170071 0.047043 -0.125499 133 100 121
-0.066071 0.049313 -0.076447 133 100 121
-0.174306 0.075948 -0.148223 137 100 117
-0.041322 0.008426 0.090252 128 100 126
-0.197934 -0.620769 0.331595 48 100 206
0.060839 0.045266 0.196645 133 100 121
-0.079849 0.058095 0.223266 134 100 120
0.107703 0.056158 -0.328726 134 100 120
-0.201408 0.065868 -0.079641 135 100 119
0.508206 -0.213074 -0.143058 100 100 154
0.399670 0.061169 -0.019960 135 100 119
0.094607 0.075155 0.285735 137 100 117
-0.211306 0.034828 -0.135303 131 100 123
-0.013936 0.018726 0.153837 129 100 125
0.086812 0.055604 -0.080660 134 100 120
-0.133418 0.077699 0.254889 137 100 117
0.198877 0.033166 0.080921 131 100 123
0.156649 0.085624 0.056822 138 100 116
-0.045121 -0.018553 0.184216 125 100 129
-0.071175 0.070499 -0.080985 136 100 118
-0.018141 0.092852 0.212601 139 100 115
0.056675 0.021003 -0.235742 130 100 124
0.100699 -0.251628 -0.466187 95 100 159
-0.191164 0.062517 -0.085065 135 100 119
-0.226742 0.066443 0.228280 135 100 119
0.272819 -0.023541 -0.018867 124 100 130
-0.011747 0.038930 0.138834 132 100 122
-0.012581 -0.029203 0.149562 123 100 131
0.038292 0.060652 -0.204770 135 100 119
-0.154077 0.062321 0.091062 135 100 119
0.021224 0.061311 0.186285 135 100 119
-0.203568 0.040050 0.077402 132 100 122
-0.246401 0.057356 -0.103691 134 100 120
-0.084546 0.060835 0.354612 135 100 119
-0.176804 -0.016511 -0.063401 125 100 129
-0.278394 0.031763 -0.049112 131 100 123
0.048577 0.057584 0.198164 134 100 120
0.167126 -0.001026 0.070448 127 100 127
0.286403 0.010062 0.000819 128 100 126
-0.015745 0.011849 0.248852 129 100 125
-0.076972 0.030507 -0.113944 131 100 123
-0.023719 0.048184 -0.091946 133 100 121
-0.116646 -0.011901 0.247862 125 100 129
0.031496 0.056859 0.219701 134 100 120
-0.039379 0.078849 0.089720 137 100 117
0.063088 0.038656 -0.227068 132 100 122
-0.118841 0.087521 0.246206 138 100 116
0.117448 0.027580 0.043695 131 100 123
-0.145627 0.067469 0.038429 136 100 118
0.228599 0.023293 0.160117 130 100 124
0.113066 0.027416 -0.045188 130 100 124
0.100119 0.027094 0.051532 130 100 124
-0.076931 0.008270 0.200685 128 100 126
0.195274 0.076265 -0.065156 137 100 117
0.132754 -0.031213 -0.107113 123 100 131
-0.241848 0.033591 -0.028431 131 100 123
0.085690 0.046669 0.236935 133 100 121
0.369292 0.099102 -0.035439 140 100 114
0.134312 0.071561 -0.051486 136 100 118
-0.049516 0.066953 0.178717 136 100 118
-0.185157 -0.017367 -0.034631 125 100 129
-0.304976 0.115439 0.161458 142 100 112
0.069919 -0.018356 0.210319 125 100 129
0.173286 0.002462 0.159661 127 100 127
0.071258 0.031344 0.191912 131 100 123
-0.172245 -0.007650 0.053640 126 100 128
0.044059 0.005279 0.101271 128 100 126
-0.119260 0.000396 0.166030 127 100 127
-0.157825 0.069673 -0.225093 136 100 118
0.255718 0.006686 0.034478 128 100 126
0.147948 0.019909 0.279311 130 100 124
-0.215333 0.017838 -0.129520 129 100 125
0.395959 0.113706 0.122502 141 100 113
0.196661 0.070194 0.049056 136 100 118
-0.135943 -0.037453 0.221592 122 100 132
0.093622 0.024178 0.197899 130 100 124
-0.086922 0.010960 0.099938 128 100 126
-0.283587 0.020802 -0.066695 130 100 124
0.116718 -0.022658 0.165685 124 100 130
-0.073391 0.012759 0.202481 129 100 125
0.142635 0.041870 0.165095 132 100 122
-0.134586 0.016804 0.019903 129 100 125
-0.382909 0.597964 0.135100 203 100 51
0.253446 0.076412 0.143048 137 100 117
-0.274339 -0.054210 0.045943 120 100 134
0.121402 -0.016638 0.181240 125 100 129
-0.268993 0.034204 0.020204 131 100 123
0.010476 -0.010307 -0.198587 126 100 128
-0.016247 -0.046083 0.162561 121 100 133
0.058779 -0.014820 0.146544 125 100 129
0.274947 0.011743 -0.130821 128 100 126
0.076719 0.030244 -0.154903 131 100 123
0.056876 0.035450 -0.394763 132 100 122
0.251013 -0.032721 0.111512 123 100 131
0.331366 0.086374 0.176588 138 100 116
0.197496 0.079413 0.054493 137 100 117
-0.193398 0.054365 0.468927 134 100 120
-0.066998 0.043275 -0.110987 133 100 121
-0.211167 0.053349 -0.158427 134 100 120
-0.015318 0.011963 -0.180308 129 100 125
0.262392 0.059358 -0.417771 135 100 119
-0.118084 0.043856 -0.147159 133 100 121
0.215593 0.046462 0.005661 133 100 121
-0.021961 0.002345 0.230096 127 100 127
-0.229819 0.006652 0.008520 128 100 126
0.016164 0.012060 -0.446894 129 100 125
-0.158225 0.045165 0.104299 133 100 121
0.195038 0.030016 0.068908 131 100 123
-0.015854 -0.005906 0.271489 126 100 128
0.503645 -0.448385 0.079493 70 100 184
-0.162094 0.016825 0.064307 129 100 125
0.012559 0.066395 -0.239600 135 100 119
-0.238132 0.021517 0.001178 130 100 124
-0.139144 0.070662 0.262689 136 100 118
-0.091840 0.034857 0.215382 131 100 123
-0.167129 -0.004540 0.035275 126 100 128
0.233490 0.060739 -0.245452 135 100 119
0.025993 0.066387 -0.158891 135 100 119
-0.117118 0.037809 0.165985 132 100 122
-0.227468 0.038791 -0.062337 132 100 122
-0.375728 -0.012260 -0.103106 125 100 129
0.043661 0.072589 -0.020995 136 100 118
-0.177546 0.069787 -0.178009 136 100 118
0.009233 0.049381 0.277846 133 100 121
-0.080569 0.030049 0.112883 131 100 123
-0.218452 -0.021291 -0.027341 124 100 130
0.067929 0.066131 -0.181368 135 100 119
0.225914 -0.001956 0.043671 127 100 127
0.122420 0.033057 0.337614 131 100 123
0.200238 0.320217 -0.175829 168 100 86
-0.166031 0.062489 0.343682 135 100 119
-0.259791 -0.044262 0.170770 121 100 133
-0.091530 -0.030192 0.331148 123 100 131
-0.232566 0.079001 -0.043855 137 100 117
-0.180726 0.021715 -0.028462 130 100 124
0.097014 0.066365 0.126862 135 100 119
0.165445 0.045952 -0.160205 133 100 121
0.091082 0.044487 0.198299 133 100 121
0.200995 0.045419 -0.214767 133 100 121
0.077447 0.097413 0.180875 139 100 115
-0.267058 0.361281 -0.189543 173 100 81
0.111856 0.068518 -0.127855 136 100 118
0.252313 0.058575 -0.258061 134 100 120
-0.068126 0.022047 -0.171675 130 100 124
0.050688 0.046193 0.128244 133 100 121
0.116089 -0.015231 -0.042513 125 100 129
-0.061307 -0.044170 0.186112 121 100 133
-0.178708 0.010395 0.083613 128 100 126
-0.203647 -0.665749 -0.487495 42 100 212
0.225291 0.075808 0.099592 137 100 117
0.357781 0.024933 0.216128 130 100 124
-0.027882 0.028706 0.103552 131 100 123
0.236204 0.037363 -0.089261 132 100 122
-0.058067 0.040986 -0.183943 132 100 122
0.215550 -0.004878 0.124321 126 100 128
-0.021987 -0.010236 0.480101 126 100 128
0.038816 0.075250 -0.200923 137 100 117
-0.413767 -0.013831 0.093290 125 100 129
-0.253017 0.115992 -0.013771 142 100 112
-0.157101 0.034074 0.120259 131 100 123
-0.120691 0.056413 0.164546 134 100 120
-0.107051 0.027498 -0.292366 131 100 123
-0.025793 -0.040670 -0.225581 122 100 132
-0.075161 0.092393 0.176198 139 100 115
-0.022479 0.008910 -0.260736 128 100 126
-0.280392 0.029972 0.006989 131 100 123
-0.358725 0.026678 -0.175261 130 100 124
0.224712 -0.014523 -0.132644 125 100 129
0.170002 0.035738 -0.033501 132 100 122
0.102596 0.009659 -0.229266 128 100 126
-0.158186 0.058388 0.138867 134 100 120
-0.166098 0.047072 -0.130422 133 100 121
-0.308147 0.097480 -0.097031 139 100 115
0.129793 0.043476 -0.050783 133 100 121
-0.052002 0.040266 -0.295371 132 100 122
0.267153 0.023650 0.099673 130 100 124
0.029665 0.052012 0.112432 134 100 120
-0.263289 -0.005753 0.035267 126 100 128
-0.032472 0.052167 -0.060208 134 100 120
0.205365 0.052280 0.015280 134 100 120
-0.011301 0.032768 -0.214597 131 100 123
0.151825 0.013842 -0.219622 129 100 125
0.024344 -0.086618 -0.539849 116 100 138
-0.182402 0.030892 0.033373 131 100 123
-0.248348 0.037272 0.116654 132 100 122
-0.235947 0.063487 -0.026915 135 100 119
-0.192373 0.044251 -0.050009 133 100 121
0.026179 0.100485 -0.230098 140 100 114
0.143960 -0.563713 -0.342780 55 100 199
-0.030950 -0.026543 -0.178262 124 100 130
0.218016 0.031728 0.006680 131 100 123
-0.220440 0.024469 0.035629 130 100 124
0.192117 -0.004947 -0.071246 126 100 128
-0.135013 0.087429 -0.179865 138 100 116
-0.187348 0.057163 0.183758 134 100 120
-0.242491 0.011853 -0.045515 129 100 125
-0.219752 0.023880 0.043858 130 100 124
0.109032 0.020394 -0.294483 130 100 124
-0.220104 0.006056 0.022606 128 100 126
-0.142030 -0.439956 0.527944 71 100 183
0.135960 0.009947 0.184398 128 100 126
0.192662 0.023551 0.162516 130 100 124
-0.228885 0.000695 0.336269 127 100 127
0.184957 0.032344 -0.179633 131 100 123
0.061063 0.016799 -0.209825 129 100 125
-0.190615 0.017768 0.206412 129 100 125
0.099422 0.032312 -0.102070 131 100 123
-0.229136 0.010340 0.076151 128 100 126
0.207002 0.032005 -0.054844 131 100 123
0.132645 0.003947 -0.258403 128 100 126
0.198460 0.071210 -0.169253 136 100 118
-0.119171 0.061049 -0.029806 135 100 119
-0.083689 0.103283 -0.223489 140 100 114
0.003283 0.003800 -0.220450 127 100 127
0.026330 0.054660 -0.272513 134 100 120
0.166918 0.066122 0.072397 135 100 119
-0.119873 -0.214806 -0.468946 100 100 154
0.233373 0.056369 0.238830 134 100 120
-0.202309 0.070640 0.065987 136 100 118
-0.211555 0.075665 -0.195008 137 100 117
-0.302897 0.064169 0.085557 135 100 119
-0.181490 0.013738 -0.145781 129 100 125
-0.302027 0.029945 -0.071493 131 100 123
0.232753 0.023302 -0.036700 130 100 124
0.122119 -0.043570 -0.209808 121 100 133
-0.114776 0.047266 0.042973 133 100 121
-0.100886 0.028081 -0.323590 131 100 123
-0.068605 0.050511 -0.216949 133 100 121
-0.111645 0.063030 -0.134116 135 100 119
0.249031 0.067541 -0.035323 136 100 118
-0.281957 0.108456 -0.045333 141 100 113
-0.030615 0.044288 -0.274325 133 100 121
-0.278891 0.079962 0.013116 137 100 117
0.274963 0.074832 0.215810 137 100 117
-0.131575 0.019022 0.202792 129 100 125
0.006069 0.060988 -0.243864 135 100 119
-0.067854 0.000880 -0.222618 127 100 127
0.180212 0.036829 0.094678 132 100 122
0.004900 -0.007211 0.233625 126 100 128
-0.175550 0.030660 -0.254162 131 100 123
-0.039720 0.068836 -0.161909 136 100 118
0.178716 0.025903 -0.033899 130 100 124
-0.146987 0.045537 -0.134120 133 100 121
-0.031571 -0.001646 0.191154 127 100 127
-0.161272 0.027863 -0.126412 131 100 123
0.175669 0.058526 -0.067720 134 100 120
0.162154 0.007354 -0.048446 128 100 126
0.164590 0.010396 -0.147056 128 100 126
-0.226899 0.016187 -0.126407 129 100 125
-0.114321 0.038095 0.108102 132 100 122
0.123584 0.081648 0.083194 137 100 117
0.244138 0.057240 -0.079239 134 100 120
0.108658 0.066493 -0.114803 135 100 119
-0.064222 0.102286 0.140752 140 100 114
-0.059885 0.042700 -0.134740 132 100 122
-0.218768 0.031308 -0.017781 131 100 123
0.098579 0.061118 -0.228437 135 100 119
-0.064123 0.026300 0.185089 130 100 124
0.122233 0.026934 0.255419 130 100 124
0.142627 0.006538 -0.203021 128 100 126
-0.326429 0.023556 0.009461 130 100 124
-0.175986 -0.015254 -0.113615 125 100 129
0.226804 0.771981 0.125582 225 100 29
0.046486 0.016250 -0.133318 129 100 125
0.109580 0.029672 0.309164 131 100 123
0.126031 0.006187 0.200209 128 100 126
0.115478 0.050361 -0.195154 133 100 121
0.197837 0.049173 0.205074 133 100 121
-0.091826 -0.748937 0.386994 32 100 222
0.194940 -0.003317 0.108798 127 100 127
-0.312962 -0.041618 -0.106326 122 100 132
-0.409062 0.033264 -0.118947 131 100 123
0.171150 0.049514 -0.084118 133 100 121
-0.219748 -0.008971 0.079723 126 100 128
-0.268517 0.140740 0.419883 145 100 109
0.020298 0.082100 -0.087334 137 100 117
-0.143879 0.006374 -0.394388 128 100 126
0.186789 0.018973 0.103704 129 100 125
-0.029250 0.047752 -0.179832 133 100 121
0.219509 0.328221 0.239994 169 100 85
0.228966 0.025830 -0.040169 130 100 124
-0.276182 0.068743 -0.068421 136 100 118
0.140570 0.759284 0.316136 224 100 30
0.315572 0.052748 0.196907 134 100 120
0.220902 -0.027978 0.027347 123 100 131
0.215225 0.055811 0.008351 134 100 120
-0.005778 0.019972 -0.263877 130 100 124
0.496967 -0.638146 0.294614 46 100 208
-0.195122 0.043903 0.037677 133 100 121
-0.239103 0.034676 0.103809 131 100 123
-0.273149 0.039723 -0.088064 132 100 122
-0.003738 0.091605 0.116902 139 100 115
0.137016 0.028206 -0.256979 131 100 123
0.024494 0.025533 -0.283780 130 100 124
-0.270819 0.014574 0.032866 129 100 125
0.135363 0.034815 0.221915 131 100 123
0.135323 0.044996 -0.114148 133 100 121
-0.102051 0.047932 0.206487 133 100 121
0.054950 0.052573 0.052886 134 100 120
-0.108505 0.016332 0.057713 129 100 125
-0.352778 0.063643 -0.026340 135 100 119
-0.071188 0.132800 -0.174053 144 100 110
0.123273 0.007460 0.020974 128 100 126
0.278838 0.130878 0.001053 144 100 110
-0.246790 0.030111 0.112413 131 100 123
-0.271579 0.007736 0.151423 128 100 126
0.017583 -0.004493 0.327429 126 100 128
-0.144897 0.039753 -0.225883 132 100 122
-0.175189 -0.003255 -0.181516 127 100 127
0.202865 0.069158 -0.034763 136 100 118
0.079234 0.055354 0.213006 134 100 120
-0.071843 0.010177 0.179360 128 100 126
-0.031877 0.070511 0.215471 136 100 118
-0.198836 0.018381 0.240690 129 100 125
0.213931 0.070129 -0.062141 136 100 118
-0.212730 0.046322 0.110205 133 100 121
0.046350 -0.408287 -0.361135 75 100 179
-0.219373 -0.016240 -0.149399 125 100 129
-0.028996 -0.023785 0.307748 124 100 130
0.323281 0.020897 -0.102610 130 100 124
0.224848 0.049301 -0.266205 133 100 121
-0.260627 0.056352 -0.092528 134 100 120
0.249132 -0.006962 -0.058948 126 100 128
-0.015045 0.092559 0.144305 139 100 115
-0.043736 0.050469 0.257815 133 100 121
-0.141521 0.002954 -0.214722 127 100 127
0.382780 -0.034099 -0.006550 123 100 131
0.129351 0.014926 -0.259443 129 100 125
0.282525 -0.514061 0.339473 61 100 193
-0.066665 0.037263 0.259615 132 100 122
-0.171047 0.045529 0.058175 133 100 121
0.072962 0.019291 -0.143812 129 100 125
-0.155604 -0.006157 0.182183 126 100 128
0.139515 0.009172 0.066697 128 100 126
-0.112597 0.058907 0.175219 135 100 119
-0.112877 -0.356226 -0.577408 82 100 172
-0.444807 -0.093908 -0.335594 115 100 139
-0.154682 0.064608 0.210284 135 100 119
-0.000230 0.014101 0.170400 129 100 125
-0.046685 0.060171 -0.253837 135 100 119
0.196847 0.055274 -0.091031 134 100 120
-0.366359 -0.103996 0.121339 114 100 140
0.163570 0.060493 -0.269268 135 100 119
-0.171171 -0.000077 -0.031681 127 100 127
-0.251576 0.033419 0.061968 131 100 123
-0.008007 0.008490 -0.245387 128 100 126
-0.170865 -0.058421 0.112313 120 100 134
-0.240010 0.043793 -0.097736 133 100 121
-0.171063 0.027152 -0.091683 130 100 124
0.118960 0.080973 0.117086 137 100 117
0.145337 0.015968 0.144355 129 100 125
0.131253 -0.023385 -0.181934 124 100 130
0.129638 0.064381 -0.091875 135 100 119
0.015530 0.001042 0.176820 127 100 127
0.014141 0.011519 -0.155792 128 100 126
-0.097530 0.157371 0.465898 147 100 107
0.150115 0.069526 -0.147927 136 100 118
-0.241304 0.070609 0.114401 136 100 118
0.018355 0.017456 0.222499 129 100 125
-0.038981 0.059070 -0.165957 135 100 119
0.096905 0.073991 0.046204 136 100 118
-0.342505 -0.702347 -0.256882 37 100 217
0.074794 0.035501 0.130398 132 100 122
-0.068190 0.038574 0.278891 132 100 122
0.166475 0.057827 -0.209758 134 100 120
-0.178882 0.000778 -0.112646 127 100 127
-0.257899 -0.014925 -0.004550 125 100 129
0.190986 0.018668 0.072658 129 100 125
-0.032413 0.078637 -0.267433 137 100 117
0.067972 0.079425 -0.137790 137 100 117
0.171230 0.081149 -0.049573 137 100 117
0.081616 0.056748 0.258804 134 100 120
0.012738 -0.004305 0.156584 126 100 128
0.202474 0.041615 -0.012086 132 100 122
0.015522 0.085316 -0.237512 138 100 116
-0.422934 -0.110996 -0.059123 113 100 141
0.228107 0.039627 0.038686 132 100 122
0.056920 0.058705 0.201635 134 100 120
0.186935 -0.003180 0.015331 127 100 127
-0.026857 0.079004 0.197853 137 100 117
-0.012691 0.089006 0.231990 138 100 116
0.052380 0.008206 -0.191357 128 100 126
0.176763 -0.014241 0.251008 125 100 129
-0.067310 0.034423 -0.173424 131 100 123
-0.062804 0.053880 -0.236557 134 100 120
0.148871 0.031838 0.162055 131 100 123
0.004993 0.053310 -0.223390 134 100 120
-0.003641 0.764841 -0.347366 225 100 29
0.357430 0.089796 -0.108189 138 100 116
-0.252936 0.035520 -0.104291 132 100 122
-0.041276 0.015722 0.326603 129 100 125
0.071256 0.052183 0.233947 134 100 120
-0.094968 0.062740 0.094715 135 100 119
0.028535 0.018195 0.233919 129 100 125
-0.102406 0.013698 0.111934 129 100 125
0.189356 0.009241 0.172751 128 100 126
0.063107 -0.005140 0.408644 126 100 128
0.295134 -0.443264 0.222061 70 100 184
-0.123181 0.044901 -0.188969 133 100 121
0.227950 0.076307 0.229660 137 100 117
0.339301 -0.139497 -0.329082 109 100 145
0.189183 0.012304 -0.082497 129 100 125
0.077988 0.040419 0.313119 132 100 122
0.160470 0.021709 -0.134294 130 100 124
0.148644 0.065795 -0.178847 135 100 119
-0.222839 0.009633 -0.144917 128 100 126
-0.086038 0.007272 -0.179570 128 100 126
-0.166341 -0.065157 -0.169882 119 100 135
-0.030103 0.022962 -0.268711 130 100 124
-0.078112 0.023674 -0.295621 130 100 124
0.137396 0.028934 -0.073568 131 100 123
0.202924 0.010973 0.207325 128 100 126
-0.108781 -0.023382 0.165444 124 100 130
-0.136173 0.088053 0.147414 138 100 116
0.253693 0.062640 0.114328 135 100 119
0.241113 0.065823 0.113682 135 100 119
-0.051742 0.044952 0.266555 133 100 121
0.297974 0.221407 0.170460 155 100 99
0.176234 0.012451 -0.112974 129 100 125
-0.002320 0.050361 0.067059 133 100 121
0.203942 0.044430 -0.142880 133 100 121
-0.475227 -0.152670 0.242844 108 100 146
0.183802 0.037988 0.011212 132 100 122
-0.147135 0.027518 0.198311 131 100 123
0.077848 -0.018921 -0.441725 125 100 129
0.157945 0.010415 0.192408 128 100 126
0.243523 0.058287 0.025122 134 100 120
0.036684 0.004833 0.107665 128 100 126
-0.129392 0.011063 0.181878 128 100 126
-0.249107 0.007731 -0.000935 128 100 126
0.314687 0.027811 0.019750 131 100 123
0.222696 0.042575 -0.289936 132 100 122
-0.114484 0.085306 0.149549 138 100 116
0.394310 0.128856 -0.196525 143 100 111
0.001035 -0.003697 -0.150022 127 100 127
0.164382 0.109018 -0.243906 141 100 113
0.131908 0.097151 -0.103355 139 100 115
-0.122486 0.057053 -0.048149 134 100 120
0.145012 0.025211 -0.323449 130 100 124
-0.223701 0.052053 -0.043102 134 100 120
0.012431 0.029230 0.233014 131 100 123
-0.094729 0.026342 0.108531 130 100 124
-0.089202 0.040052 -0.214131 132 100 122
0.136234 0.049977 0.180306 133 100 121
-0.009897 0.081835 -0.085747 137 100 117
0.068612 -0.013844 0.256222 125 100 129
-0.212939 0.016300 0.070376 129 100 125
0.247929 0.055789 0.117099 134 100 120
-0.216130 0.005563 -0.000420 128 100 126
0.059714 0.093557 -0.292204 139 100 115
0.180992 0.035672 0.147481 132 100 122
-0.158690 0.021905 -0.157876 130 100 124
-0.113362 0.015588 0.174224 129 100 125
-0.271841 0.016129 0.098751 129 100 125
0.218995 0.056939 -0.141941 134 100 120
0.372907 -0.479663 -0.379982 66 100 188
0.200759 0.051086 0.281989 134 100 120
-0.168584 0.254660 0.260793 159 100 95
-0.019267 0.035963 -0.045936 132 100 122
-0.172579 0.031911 0.063747 131 100 123
0.073710 0.006629 0.219515 128 100 126
-0.052935 0.024930 0.016580 130 100 124
0.192305 -0.001435 -0.025442 127 100 127
-0.101405 0.012789 -0.098205 129 100 125
-0.117712 0.013125 -0.409309 129 100 125
0.261747 0.119940 0.409224 142 100 112
0.089507 0.052272 -0.179029 134 100 120
-0.072104 0.034107 0.230290 131 100 123
-0.264782 -0.006774 0.033033 126 100 128
-0.309633 -0.273423 0.444767 92 100 162
0.213249 0.058398 -0.065138 134 100 120
0.118697 0.048876 0.014289 133 100 121
-0.097987 0.056131 -0.208657 134 100 120
0.099772 -0.009379 0.015514 126 100 128
0.084000 0.088015 -0.245974 138 100 116
-0.180275 0.025201 0.172012 130 100 124
-0.084988 0.039722 -0.047297 132 100 122
-0.009451 0.010805 -0.292936 128 100 126
-0.312534 -0.039222 -0.034332 122 100 132
-0.293415 -0.024457 0.057491 124 100 130
-0.170170 -0.002952 0.144483 127 100 127
0.003975 0.000965 -0.131485 127 100 127
0.156811 0.036213 0.159049 132 100 122
-0.208286 0.049235 -0.076552 133 100 121
-0.148561 0.029896 -0.069054 131 100 123
-0.146519 0.021711 0.013898 130 100 124
-0.018623 0.006084 0.120681 128 100 126
-0.254899 0.048309 -0.231781 133 100 121
-0.209648 -0.001729 0.028015 127 100 127
0.198008 0.435488 0.128214 183 100 71
-0.224398 0.083916 0.024566 138 100 116
0.119192 -0.000104 -0.254922 127 100 127
-0.434239 0.010672 0.116626 128 100 126
0.157356 -0.100805 -0.414157 114 100 140
-0.357508 -0.456624 0.044735 69 100 185
0.134731 0.081255 0.197796 137 100 117
-0.061313 0.059940 -0.111924 135 100 119
-0.060336 -0.048731 0.324162 121 100 133
-0.002193 0.041987 -0.229155 132 100 122
-0.054740 0.032148 -0.183222 131 100 123
-0.196469 0.015297 0.037811 129 100 125
-0.011258 0.012996 0.202066 129 100 125
0.240475 -0.036540 -0.052333 122 100 132
-0.139266 -0.452877 -0.412987 69 100 185
0.146813 0.057189 0.058071 134 100 120
-0.125182 0.043686 0.126344 133 100 121
0.128566 0.049422 -0.168439 133 100 121
0.114438 0.127095 -0.004209 143 100 111
0.072590 0.046744 -0.260641 133 100 121
-0.128887 0.087785 0.048466 138 100 116
0.144381 -0.011543 0.214224 126 100 128
0.115305 0.029644 -0.187431 131 100 123
0.092599 0.012839 0.176074 129 100 125
0.110080 0.004304 -0.340493 128 100 126
-0.287850 0.022557 -0.090036 130 100 124
0.062764 0.049658 -0.144966 133 100 121
-0.230697 0.064435 -0.116825 135 100 119
-0.156007 0.055648 0.106255 134 100 120
-0.053547 0.045385 -0.261384 133 100 121
-0.131735 0.065102 0.103925 135 100 119
0.062515 0.058766 -0.062910 134 100 120
-0.170084 -0.043497 0.173605 121 100 133
-0.189815 0.066420 -0.103439 135 100 119
-0.093665 -0.021710 0.091567 124 100 130
-0.159832 0.087157 -0.104207 138 100 116
-0.132772 -0.002838 0.212665 127 100 127
0.185962 0.035845 -0.101434 132 100 122
-0.195828 0.012749 0.100169 129 100 125
-0.233289 0.107821 -0.181549 141 100 113
-0.384789 0.091163 0.000137 139 100 115
-0.110823 0.035050 -0.128106 131 100 123
0.200166 -0.194020 0.350327 102 100 152
-0.241214 -0.002316 0.010418 127 100 127
-0.138720 0.019010 -0.019974 129 100 125
0.158942 0.038212 -0.062599 132 100 122
0.150794 0.483203 -0.411816 189 100 65
-0.213210 0.051465 -0.122183 134 100 120
-0.271795 0.068251 -0.082375 136 100 118
0.182428 0.029539 -0.099941 131 100 123
-0.107573 0.066274 -0.256183 135 100 119
-0.062101 0.030402 0.226157 131 100 123
-0.221789 -0.014298 0.009022 125 100 129
0.210879 0.098149 0.231618 140 100 114
-0.121697 0.000344 0.144753 127 100 127
0.002626 -0.035465 0.182687 122 100 132
-0.031050 0.037685 0.221068 132 100 122
-0.042265 0.041203 0.012932 132 100 122
-0.344069 -0.036511 -0.103866 122 100 132
0.097682 0.053886 0.288428 134 100 120
0.238241 -0.012724 -0.032174 125 100 129
-0.144035 0.025367 -0.072836 130 100 124
0.149375 0.056224 0.008940 134 100 120
-0.270225 0.025430 -0.007815 130 100 124
-0.027524 0.064532 0.162588 135 100 119
-0.277994 0.096269 -0.181263 139 100 115
-0.286289 0.049552 -0.047299 133 100 121
-0.078462 0.067050 -0.067073 136 100 118
0.057196 0.046418 -0.183608 133 100 121
-0.234681 0.773074 -0.173396 226 100 28
0.022098 0.079003 0.067231 137 100 117
-0.094352 0.019393 0.015010 129 100 125
0.063068 0.046052 -0.159686 133 100 121
-0.213313 0.011906 -0.105487 129 100 125
-0.171348 0.009596 0.200175 128 100 126
-0.141040 0.052961 -0.095619 134 100 120
-0.186825 0.050197 -0.173928 133 100 121
0.203140 0.009665 0.123510 128 100 126
-0.082837 0.047642 0.235998 133 100 121
-0.355166 0.005463 0.050641 128 100 126
-0.171050 0.018474 0.010365 129 100 125
0.057734 0.029258 -0.157346 131 100 123
-0.170469 -0.010000 -0.078285 126 100 128
0.180380 0.015756 0.120484 129 100 125
0.124127 0.024586 0.106669 130 100 124
-0.308835 0.064701 -0.093523 135 100 119
0.190633 0.063970 -0.100910 135 100 119
0.160581 0.036564 0.104570 132 100 122
0.081918 0.025143 0.087577 130 100 124
0.205593 0.101202 0.046339 140 100 114
-0.232944 0.043370 -0.189042 133 100 121
0.088465 0.052542 -0.232534 134 100 120
-0.160551 0.035661 -0.090575 132 100 122
-0.166416 0.089182 0.011365 138 100 116
-0.009381 -0.005195 -0.237951 126 100 128
0.036201 0.087475 -0.122671 138 100 116
-0.109094 0.024833 -0.053011 130 100 124
-0.079613 0.044739 0.242494 133 100 121
0.420799 -0.343272 0.168281 83 100 171
0.071977 0.024460 0.109053 130 100 124
-0.154990 0.027906 0.156060 131 100 123
-0.283294 0.087486 -0.210620 138 100 116
-0.043823 0.062712 -0.252830 135 100 119
0.136148 0.066454 0.131862 135 100 119
-0.073174 0.089496 -0.203745 138 100 116
0.020726 0.032653 0.296668 131 100 123
0.024607 -0.379653 0.556824 79 100 175
0.136835 0.021720 0.045510 130 100 124
-0.153257 0.059297 0.303863 135 100 119
-0.145830 -0.000365 -0.496231 127 100 127
0.129364 0.048646 0.149332 133 100 121
-0.250951 0.027007 0.030275 130 100 124
-0.463921 -0.054826 0.160011 120 100 134
0.414778 -0.467166 0.112883 67 100 187
0.178186 0.059697 0.103182 135 100 119
-0.115981 0.017353 0.081659 129 100 125
0.013886 0.000819 -0.258210 127 100 127
-0.011598 -0.015056 0.220560 125 100 129
-0.157458 0.186987 -0.354937 151 100 103
-0.106779 0.036142 -0.229939 132 100 122
0.144824 0.008125 -0.012424 128 100 126
0.131916 0.026480 0.188552 130 100 124
-0.101100 0.037654 -0.153363 132 100 122
0.403314 -0.582087 0.321089 53 100 201
-0.218547 0.000282 0.016593 127 100 127
0.263219 0.059116 0.178328 135 100 119
0.009453 0.043169 -0.251364 133 100 121
0.244280 0.054214 -0.016524 134 100 120
-0.059243 0.020911 0.092968 130 100 124
-0.182204 0.055122 -0.208822 134 100 120
-0.221528 0.046677 -0.071174 133 100 121
0.182784 0.019725 0.095512 130 100 124
-0.185843 0.017906 -0.189162 129 100 125
0.033572 0.076367 -0.101039 137 100 117
0.420428 -0.016361 -0.091243 125 100 129
-0.202462 0.041581 -0.088661 132 100 122
-0.128504 0.053537 0.144521 134 100 120
-0.036314 0.082806 0.064057 138 100 116
-0.161286 0.007704 -0.214489 128 100 126
0.216269 0.064174 0.030625 135 100 119
0.047391 0.026917 -0.266235 130 100 124
-0.145980 0.071152 -0.206627 136 100 118
-0.155170 -0.052107 -0.110874 120 100 134
-0.309969 0.087826 0.192580 138 100 116
-0.252237 0.049693 0.085720 133 100 121
-0.083032 0.039406 0.219648 132 100 122
-0.256429 0.149411 -0.311172 146 100 108
-0.005168 0.066280 -0.070634 135 100 119
0.117884 0.078364 -0.132034 137 100 117
-0.255367 0.025263 0.187510 130 100 124
-0.227758 -0.004816 -0.049308 126 100 128
0.156789 0.003527 0.188118 127 100 127
-0.225503 0.017160 0.101098 129 100 125
-0.163743 0.033730 0.065224 131 100 123
-0.239424 0.002099 -0.046030 127 100 127
0.357824 -0.044940 -0.419869 121 100 133
0.097049 0.091547 -0.250443 139 100 115
-0.198908 0.034286 0.159416 131 100 123
0.055448 0.059550 0.194629 135 100 119
0.123719 0.067078 -0.026396 136 100 118
0.353262 -0.082389 0.068335 116 100 138
0.453651 -0.087380 -0.297163 116 100 138
0.331664 0.044788 -0.124525 133 100 121
0.178585 0.051583 -0.145215 134 100 120
-0.128069 -0.029452 -0.260076 123 100 131
-0.309048 -0.027641 0.079431 123 100 131
-0.148640 0.001229 -0.196219 127 100 127
0.054371 0.043970 -0.194697 133 100 121
0.199344 -0.000379 0.025967 127 100 127
0.033339 0.021411 0.248428 130 100 124
-0.146147 0.046988 0.241289 133 100 121
-0.112626 0.071817 0.231106 136 100 118
0.395092 0.121731 -0.063183 143 100 111
-0.193814 0.037911 -0.118956 132 100 122
-0.076239 -0.016498 -0.255816 125 100 129
0.176614 0.052255 -0.305272 134 100 120
0.073168 0.062230 0.131143 135 100 119
-0.225422 0.028178 -0.108374 131 100 123
0.024301 0.043701 -0.297980 133 100 121
-0.053243 0.019179 0.304448 129 100 125
0.289320 -0.326070 0.524294 85 100 169
0.069495 0.058564 -0.018989 134 100 120
-0.170866 0.012874 0.169829 129 100 125
-0.122757 0.037470 -0.001859 132 100 122
-0.164889 -0.007372 0.266009 126 100 128
-0.217611 0.031850 -0.033080 131 100 123
-0.080069 -0.001732 0.293603 127 100 127
0.116533 0.082915 -0.080871 138 100 116
-0.291757 -0.055886 0.201802 120 100 134
0.150581 0.052218 0.127790 134 100 120
0.100948 0.049112 0.005984 133 100 121
0.323894 0.062666 -0.286859 135 100 119
-0.179643 0.027052 -0.014018 130 100 124
0.507377 -0.607734 -0.198592 50 100 204
0.093867 0.108035 0.167859 141 100 113
-0.234397 0.052004 -0.039976 134 100 120
-0.181032 0.034577 -0.112313 131 100 123
0.044321 -0.023317 0.247572 124 100 130
-0.085131 0.083656 0.179890 138 100 116
0.298400 0.156565 -0.134094 147 100 107
0.231739 0.013526 0.045492 129 100 125
0.063592 -0.014192 0.135231 125 100 129
0.297769 0.241101 0.008215 158 100 96
0.144974 0.009986 -0.050748 128 100 126
0.235361 0.004397 0.032484 128 100 126
-0.257033 0.000234 -0.177407 127 100 127
0.220590 0.051040 -0.082882 134 100 120
0.006881 0.035548 0.342433 132 100 122
0.058920 0.054319 -0.132888 134 100 120
0.149272 0.019799 0.308440 130 100 124
0.354466 0.035696 0.154231 132 100 122
0.162535 0.057163 -0.074175 134 100 120
0.076901 0.019603 0.037202 129 100 125
0.147849 0.063441 -0.150314 135 100 119
0.175009 0.083839 -0.117705 138 100 116
-0.037052 0.049277 0.251958 133 100 121
-0.189118 0.016837 -0.083942 129 100 125
-0.240276 0.055270 -0.087584 134 100 120
0.150616 -0.008905 0.303417 126 100 128
0.200273 0.065200 -0.195643 135 100 119
-0.140989 0.037315 0.137906 132 100 122
-0.207971 0.109603 -0.108061 141 100 113
-0.155324 0.124564 -0.116298 143 100 111
0.235919 -0.021950 0.318065 124 100 130
0.196851 0.038389 0.068441 132 100 122
0.056735 0.007964 0.254815 128 100 126
-0.020052 0.020426 -0.216363 130 100 124
0.010877 0.042189 -0.144892 132 100 122
-0.211851 0.043299 0.204791 133 100 121
0.089724 -0.007749 -0.237135 126 100 128
-0.228920 0.024655 0.034449 130 100 124
-0.211526 0.087023 0.167687 138 100 116
0.150699 -0.006342 0.096390 126 100 128
-0.172921 -0.007434 -0.067984 126 100 128
0.034934 0.065296 0.252113 135 100 119
0.220166 0.083997 -0.100355 138 100 116
-0.326558 -0.418288 -0.227110 74 100 180
0.113837 0.102086 -0.262167 140 100 114
0.084056 -0.072357 0.400165 118 100 136
0.182227 0.047713 0.035361 133 100 121
-0.208217 0.021483 -0.145909 130 100 124
-0.125310 0.040735 -0.201496 132 100 122
-0.099407 0.025504 0.267535 130 100 124
0.239144 0.030862 0.134833 131 100 123
-0.211620 0.028219 -0.093705 131 100 123
-0.080395 0.032069 -0.164702 131 100 123
-0.040021 -0.093781 0.395359 115 100 139
0.023767 0.053162 0.266772 134 100 120
0.147401 0.016989 0.078685 129 100 125
-0.189140 0.073064 0.038945 136 100 118
-0.206277 -0.028875 0.186876 123 100 131
-0.237978 0.081800 -0.047590 137 100 117
-0.056701 0.013797 0.249596 129 100 125
-0.259960 0.039563 0.125044 132 100 122
0.083551 0.009317 -0.376786 128 100 126
0.219073 0.723759 -0.231091 219 100 35
-0.065795 0.078101 0.235657 137 100 117
0.183084 0.047654 -0.060885 133 100 121
0.132302 0.035398 -0.162890 132 100 122
0.256151 0.137122 -0.335416 144 100 110
0.113937 0.065008 -0.101073 135 100 119
-0.046820 0.074355 0.171617 136 100 118
-0.405829 -0.263339 -0.401695 93 100 161
-0.035360 -0.011496 0.279734 126 100 128
-0.118045 -0.017291 -0.032758 125 100 129
0.244719 0.016026 0.216400 129 100 125
-0.217469 0.040140 -0.064567 132 100 122
0.315821 0.434633 0.333178 182 100 72
-0.157347 0.029643 -0.028662 131 100 123
-0.253737 0.000650 0.143191 127 100 127
0.213294 0.026412 0.114676 130 100 124
0.091249 0.061414 -0.187855 135 100 119
0.249130 -0.019676 0.236486 124 100 130
-0.208668 0.042657 -0.185932 132 100 122
0.283323 -0.660259 0.134880 43 100 211
0.177865 0.019190 0.142471 129 100 125
0.127442 0.051810 0.250834 134 100 120
-0.209811 -0.055007 -0.047314 120 100 134
-0.052792 0.025399 0.290892 130 100 124
-0.037000 0.051238 0.231918 134 100 120
0.015144 -0.009118 -0.230352 126 100 128
0.531945 -0.183293 0.112636 104 100 150
-0.130360 0.056229 -0.205838 134 100 120
0.376027 0.547722 0.222255 197 100 57
-0.168606 0.017405 0.003825 129 100 125
-0.076384 0.004241 -0.231561 128 100 126
-0.184229 0.026528 -0.237584 130 100 124
0.158474 0.045914 -0.052731 133 100 121
0.143048 -0.056045 -0.329865 120 100 134
-0.013098 -0.005303 -0.224236 126 100 128
0.259567 0.009242 0.101552 128 100 126
-0.188961 0.062457 -0.191137 135 100 119
0.232147 0.058434 0.018276 134 100 120
0.101639 0.018154 -0.367144 129 100 125
0.039684 0.041912 -0.264068 132 100 122
-0.169480 0.033856 -0.198106 131 100 123
-0.188432 0.075661 0.157227 137 100 117
-0.145647 0.015245 0.141482 129 100 125
-0.473625 -0.025954 -0.326574 124 100 130
0.077541 0.089111 -0.258956 138 100 116
0.216443 0.061284 0.062965 135 100 119
0.071128 -0.008244 0.192977 126 100 128
-0.079264 0.040460 -0.035026 132 100 122
-0.155227 0.121484 0.323834 142 100 112
0.131065 0.054829 -0.055596 134 100 120
-0.034134 -0.025022 0.157339 124 100 130
0.125101 0.064703 -0.183076 135 100 119
-0.095964 0.054430 -0.095246 134 100 120
0.140851 0.033653 -0.086599 131 100 123
-0.214438 0.029909 0.151883 131 100 123
-0.129573 -0.017668 -0.348045 125 100 129
0.187191 0.055114 0.017563 134 100 120
-0.271522 0.025192 -0.068220 130 100 124
0.205901 0.036221 0.005388 132 100 122
0.030301 0.094098 0.257530 139 100 115
0.166425 0.025179 0.018449 130 100 124
-0.211437 0.024763 -0.085726 130 100 124
-0.230939 0.109077 -0.242957 141 100 113
0.091403 0.024883 0.264568 130 100 124
-0.115328 0.028476 -0.183017 131 100 123
-0.062458 0.033347 0.168512 131 100 123
-0.179929 -0.007406 -0.165960 126 100 128
0.212245 0.077980 0.205337 137 100 117
0.134194 0.062542 -0.277739 135 100 119
0.194042 0.036507 0.212591 132 100 122
-0.117575 0.043822 -0.246214 133 100 121
-0.520826 -0.076443 -0.071633 117 100 137
-0.467925 -0.322491 0.207042 86 100 168
-0.134060 0.010868 0.122236 128 100 126
-0.173389 0.006639 0.018137 128 100 126
0.223805 0.045218 0.008727 133 100 121
0.005553 0.070720 -0.262466 136 100 118
-0.276172 0.206406 -0.193479 153 100 101
0.361168 -0.389038 -0.079683 77 100 177
0.147252 0.620119 0.321791 206 100 48
0.026243 0.053926 0.307720 134 100 120
-0.074120 0.012236 -0.193067 129 100 125
-0.194268 0.019977 0.145522 130 100 124
-0.225067 0.002750 0.023370 127 100 127
-0.109271 0.020353 -0.064899 130 100 124
0.141912 0.011365 0.137777 128 100 126
-0.034121 -0.011326 -0.208224 126 100 128
-0.205361 0.048717 0.070522 133 100 121
-0.107889 0.033382 -0.172502 131 100 123
0.274756 -0.009194 -0.083325 126 100 128
0.260933 0.065354 0.112503 135 100 119
-0.010474 0.094107 -0.044978 139 100 115
-0.110195 0.023191 0.163253 130 100 124
-0.399252 -0.736001 0.285139 33 100 221
-0.229924 0.038080 -0.077193 132 100 122
0.204828 0.068686 -0.115809 136 100 118
