ply
format ascii 1.0
element vertex 1191
property float x
property float y
property float z
property uchar red
property uchar green
property uchar blue
end_header
0.154209 0.018889 0.005853 129 100 125
0.236018 -0.077527 0.110117 117 100 137
0.371875 -0.103873 -0.314538 114 100 140
0.341329 0.012038 -0.185322 129 100 125
0.092308 0.058968 -0.069069 135 100 119
-0.129306 -0.035551 -0.237743 122 100 132
-0.324598 0.013131 0.135167 129 100 125
-0.170025 0.011724 -0.149764 128 100 126
-0.121501 0.026012 -0.209048 130 100 124
0.190378 0.020207 0.034791 130 100 124
0.045422 -0.020266 0.243951 124 100 130
-0.129697 0.064788 0.209094 135 100 119
-0.156733 0.003175 0.154158 127 100 127
0.319917 0.046696 -0.145253 133 100 121
-0.155142 0.081884 -0.248250 137 100 117
-0.108852 0.007303 -0.263273 128 100 126
0.192587 0.082255 -0.247357 137 100 117
0.092307 0.091526 0.162781 139 100 115
-0.218618 0.016807 -0.113866 129 100 125
0.067565 0.077010 -0.218065 137 100 117
-0.049351 0.077973 0.254676 137 100 117
0.205843 -0.364805 0.388913 80 100 174
0.073511 0.038577 -0.041856 132 100 122
-0.220842 -0.002060 0.113389 127 100 127
-0.121811 0.034293 -0.002153 131 100 123
-0.103522 0.005206 0.219357 128 100 126
-0.204258 0.008147 -0.028765 128 100 126
-0.020668 0.099554 0.271757 140 100 114
0.181720 0.089079 -0.087807 138 100 116
-0.171561 0.004395 0.252167 128 100 126
0.157165 0.021889 0.087387 130 100 124
0.114717 0.094193 0.004986 139 100 115
0.259192 0.112328 -0.330535 141 100 113
-0.216172 0.051622 -0.005612 134 100 120
0.453581 -0.594432 -0.160696 51 100 203
0.054661 0.091659 0.196127 139 100 115
-0.202991 0.013510 0.027151 129 100 125
-0.123326 0.004846 -0.191525 128 100 126
0.057263 0.043828 0.221844 133 100 121
0.045760 -0.049454 0.148227 121 100 133
0.248918 0.179536 -0.137673 150 100 104
0.203505 0.063008 0.002763 135 100 119
0.114064 0.048479 0.150106 133 100 121
0.319225 0.211201 0.015038 154 100 100
0.126786 0.049039 -0.073493 133 100 121
0.181705 0.018139 0.018278 129 100 125
-0.198562 -0.021917 -0.064043 124 100 130
0.212300 0.069600 -0.058305 136 100 118
-0.026424 0.064988 0.248438 135 100 119
0.132007 0.007177 -0.041418 128 100 126
0.083257 -0.016641 0.265413 125 100 129
0.382972 0.082046 0.047392 137 100 117
0.185818 0.060884 -0.065240 135 100 119
0.069838 0.005409 0.054688 128 100 126
0.132710 0.024879 -0.177126 130 100 124
0.136049 0.062207 -0.092001 135 100 119
0.008612 0.049175 0.205217 133 100 121
-0.196639 0.082737 -0.097068 138 100 116
-0.193389 0.038127 -0.067022 132 100 122
0.135660 0.028146 0.283826 131 100 123
0.204251 0.033237 -0.163703 131 100 123
-0.082459 0.007095 0.171035 128 100 126
-0.180082 0.038562 -0.096176 132 100 122
-0.174146 0.038151 -0.143827 132 100 122
0.204543 0.044295 0.274067 133 100 121
0.125969 0.028806 0.034108 131 100 123
0.033618 0.055869 0.254492 134 100 120
-0.091131 0.024136 -0.178483 130 100 124
0.000078 0.122267 -0.120954 143 100 111
-0.125814 0.035257 0.212241 131 100 123
0.054024 0.055039 -0.282756 134 100 120
-0.167487 0.027065 0.002864 130 100 124
-0.195820 -0.001033 0.079069 127 100 127
0.200280 0.068197 0.029787 136 100 118
-0.170838 -0.042665 -0.073250 122 100 132
0.048909 0.027904 0.273800 131 100 123
0.140410 -0.004259 -0.098810 126 100 128
-0.285087 -0.368496 -0.258131 80 100 174
0.047613 0.073690 -0.272879 136 100 118
0.017889 -0.086781 0.329980 116 100 138
0.173732 0.062883 0.016019 135 100 119
-0.225711 0.021568 -0.164396 130 100 124
-0.113988 0.067905 -0.146943 136 100 118
-0.085512 0.099420 0.250220 140 100 114
0.134773 0.034832 0.084209 131 100 123
-0.246506 0.005299 -0.121460 128 100 126
-0.035161 0.034558 -0.141849 131 100 123
0.016822 -0.063122 0.415068 119 100 135
0.112140 0.011030 0.280346 128 100 126
0.087874 0.031126 0.163286 131 100 123
-0.166915 0.043203 0.036109 133 100 121
-0.232811 -0.007079 0.250280 126 100 128
-0.256486 0.065258 -0.024023 135 100 119
-0.091444 -0.020864 0.197954 124 100 130
-0.178063 0.010856 0.044182 128 100 126
0.107030 0.012048 -0.329467 129 100 125
0.218284 0.696679 -0.104687 216 100 38
-0.150784 0.029558 0.304863 131 100 123
0.209514 0.074202 0.010260 136 100 118
0.093858 0.004546 -0.211563 128 100 126
0.170668 0.122933 -0.237059 143 100 111
0.149369 0.085037 -0.096582 138 100 116
-0.073092 0.037124 0.153379 132 100 122
-0.365538 -0.214839 -0.410470 100 100 154
-0.060866 0.093139 0.318992 139 100 115
-0.128802 0.064115 0.028140 135 100 119
0.201852 -0.000410 0.163036 127 100 127
-0.166881 0.010004 -0.018899 128 100 126
0.217641 0.434935 0.317068 182 100 72
-0.158134 0.046387 -0.054946 133 100 121
-0.206227 0.009378 0.121625 128 100 126
0.227732 0.021644 0.140797 130 100 124
0.091287 0.052132 -0.143811 134 100 120
0.200485 0.125934 0.192796 143 100 111
-0.182019 0.008719 -0.161425 128 100 126
0.278962 -0.614673 0.112703 49 100 205
0.175505 0.050490 0.192748 133 100 121
0.131249 -0.001272 0.218124 127 100 127
-0.189411 0.029773 -0.025189 131 100 123
-0.040911 0.041979 0.277866 132 100 122
-0.009580 0.050243 0.190409 133 100 121
0.044255 0.002142 -0.193428 127 100 127
0.520367 -0.197179 0.052972 102 100 152
-0.069211 0.021841 -0.161841 130 100 124
0.345681 0.545217 0.196337 197 100 57
-0.151548 0.043217 0.076239 133 100 121
-0.043901 0.050061 -0.146410 133 100 121
-0.104035 0.009129 -0.162676 128 100 126
0.090712 0.042120 -0.121379 132 100 122
0.149157 -0.000637 -0.229134 127 100 127
-0.007100 0.075259 -0.213472 137 100 117
0.219101 0.040852 0.045385 132 100 122
-0.185258 0.042047 -0.145667 132 100 122
0.247226 0.074329 -0.013281 136 100 118
0.115240 -0.028242 -0.248652 123 100 131
0.055710 0.030783 -0.285706 131 100 123
-0.150318 0.001996 -0.129285 127 100 127
-0.113604 0.058783 0.118907 134 100 120
-0.109188 0.065482 0.160233 135 100 119
-0.384943 -0.076044 -0.263283 117 100 137
-0.011356 0.015451 -0.262997 129 100 125
0.169225 -0.008459 -0.018992 126 100 128
0.047459 -0.021911 0.185471 124 100 130
-0.027352 0.036743 -0.091292 132 100 122
-0.137350 0.084421 0.222440 138 100 116
0.178259 -0.000413 -0.016319 127 100 127
-0.067781 0.016063 0.130076 129 100 125
0.098287 0.099854 -0.191622 140 100 114
-0.072259 0.029799 -0.078388 131 100 123
0.169570 0.065737 -0.123754 135 100 119
-0.213764 -0.014124 0.137971 125 100 129
-0.133327 0.039117 -0.303802 132 100 122
0.067373 0.044341 -0.099434 133 100 121
-0.239087 -0.047074 -0.103673 121 100 133
0.200474 0.058357 0.040932 134 100 120
0.019994 -0.010115 0.162867 126 100 128
0.190738 0.009241 0.032146 128 100 126
-0.220228 0.061408 -0.124226 135 100 119
-0.217545 0.040907 -0.185561 132 100 122
0.090060 0.040046 0.169583 132 100 122
-0.067711 -0.000600 -0.086213 127 100 127
-0.067325 -0.004339 0.185727 126 100 128
-0.150208 -0.006045 -0.069243 126 100 128
0.183758 0.021345 0.201882 130 100 124
0.128029 0.045229 -0.233582 133 100 121
0.202747 0.024293 0.169738 130 100 124
-0.072758 0.038072 -0.244145 132 100 122
-0.567272 -0.050310 -0.069714 121 100 133
-0.442514 -0.327563 0.237265 85 100 169
-0.085723 0.024639 0.090994 130 100 124
-0.189420 0.011706 0.068433 128 100 126
0.177698 0.050837 -0.007537 133 100 121
0.014511 0.078733 -0.254722 137 100 117
-0.260697 0.218928 -0.158211 155 100 99
0.394870 -0.328203 -0.061270 85 100 169
0.097048 0.617539 0.320709 206 100 48
0.061833 0.093134 0.254123 139 100 115
-0.075109 0.007767 -0.178577 128 100 126
-0.208325 0.084562 0.134915 138 100 116
-0.196087 0.034795 0.073130 131 100 123
-0.085769 0.047554 -0.072675 133 100 121
0.197008 -0.021594 0.160393 124 100 130
-0.070205 0.034022 -0.208576 131 100 123
-0.169745 -0.000156 0.011933 127 100 127
-0.105886 0.026739 -0.144403 130 100 124
0.235159 0.065193 -0.034179 135 100 119
0.262639 0.091252 0.064400 139 100 115
0.058557 -0.004144 -0.074645 126 100 128
-0.174163 -0.007177 0.168162 126 100 128
-0.409510 -0.691692 0.283812 39 100 215
-0.192334 0.069044 -0.096369 136 100 118
0.160756 -0.004780 -0.074097 126 100 128
-0.034679 0.027258 -0.262973 130 100 124
-0.196224 0.100028 -0.046925 140 100 114
-0.256577 0.021690 -0.147019 130 100 124
0.143109 0.033032 0.020694 131 100 123
-0.266276 0.054233 -0.122980 134 100 120
-0.128467 0.044434 0.150729 133 100 121
0.198909 0.050326 0.244447 133 100 121
0.106642 0.025558 0.160430 130 100 124
0.027230 0.148352 -0.261129 146 100 108
0.208722 0.034010 -0.094834 131 100 123
-0.171199 0.049097 0.110085 133 100 121
-0.161484 0.077816 -0.210804 137 100 117
0.216004 0.053531 0.051720 134 100 120
-0.213103 0.064394 0.069601 135 100 119
0.127857 0.030292 0.225130 131 100 123
0.119348 0.098533 -0.191461 140 100 114
0.059150 0.048491 0.244121 133 100 121
0.001098 0.067394 -0.175072 136 100 118
-0.231394 0.030795 0.195616 131 100 123
0.067641 0.028466 -0.228497 131 100 123
-0.133378 0.055938 -0.214321 134 100 120
-0.246298 0.059385 -0.196410 135 100 119
0.147811 -0.009786 0.043710 126 100 128
0.268542 0.050009 -0.095139 133 100 121
-0.139729 -0.047428 0.179187 121 100 133
-0.208071 0.062970 -0.111722 135 100 119
0.165776 0.057469 -0.176881 134 100 120
-0.108533 -0.025384 -0.101922 124 100 130
0.069072 -0.016459 -0.030316 125 100 129
0.001246 0.000336 -0.297447 127 100 127
0.190175 0.039734 -0.043558 132 100 122
-0.056953 0.022410 -0.262599 130 100 124
0.161524 0.002051 0.114636 127 100 127
0.025298 0.069103 -0.276434 136 100 118
-0.008160 0.098998 0.209640 140 100 114
-0.004047 0.026788 0.191871 130 100 124
0.149544 0.014538 -0.043209 129 100 125
0.028808 0.068628 0.021054 136 100 118
-0.161133 0.048866 0.012761 133 100 121
0.164085 0.576728 -0.187170 201 100 53
0.112856 -0.049028 0.058478 121 100 133
-0.080345 0.045942 0.150497 133 100 121
-0.148686 0.055812 -0.166484 134 100 120
-0.433602 -0.322461 -0.033994 86 100 168
-0.107592 -0.038072 -0.207322 122 100 132
0.057298 0.045188 0.184619 133 100 121
0.179429 0.009835 0.031036 128 100 126
-0.116221 -0.039840 -0.036914 122 100 132
0.188402 0.033412 -0.110270 131 100 123
0.076611 0.068859 -0.254839 136 100 118
0.068180 0.004714 0.188013 128 100 126
0.130023 0.088491 0.217433 138 100 116
-0.108980 0.019174 0.027788 129 100 125
0.277402 -0.705601 -0.378278 37 100 217
0.013537 -0.031552 0.064276 123 100 131
-0.124891 0.048246 -0.188364 133 100 121
0.029657 -0.000901 -0.036996 127 100 127
0.109203 0.080077 0.174776 137 100 117
-0.158449 0.032530 0.078789 131 100 123
-0.184747 0.064383 -0.084060 135 100 119
0.130443 0.029306 -0.071909 131 100 123
0.010816 0.049955 0.186487 133 100 121
0.100431 0.068415 0.185942 136 100 118
-0.012607 0.026105 -0.189809 130 100 124
0.230575 0.022904 -0.019972 130 100 124
0.072349 0.057648 -0.195167 134 100 120
0.127547 0.034704 -0.038060 131 100 123
0.038110 0.053140 0.134783 134 100 120
0.159386 0.058182 -0.073541 134 100 120
-0.015771 0.053344 0.364696 134 100 120
0.157677 -0.010715 0.225525 126 100 128
0.132627 0.074484 -0.129869 136 100 118
-0.112935 0.054870 0.136766 134 100 120
0.054526 0.055181 0.180026 134 100 120
-0.186402 -0.001731 -0.033800 127 100 127
0.201354 -0.017542 0.210066 125 100 129
0.208819 0.032098 -0.107167 131 100 123
0.165595 0.017095 -0.005912 129 100 125
0.112758 0.080080 -0.103938 137 100 117
0.017212 0.134595 0.231397 144 100 110
-0.134136 0.003296 0.149244 127 100 127
0.064499 0.152197 -0.171830 146 100 108
-0.092971 0.067618 0.216703 136 100 118
-0.152976 0.064693 0.014114 135 100 119
0.065722 0.022528 -0.070867 130 100 124
-0.109379 0.039425 0.071725 132 100 122
0.214316 0.071637 -0.062059 136 100 118
0.146488 0.015327 0.188304 129 100 125
-0.232993 0.023757 0.153166 130 100 124
0.178579 -0.022376 0.258220 124 100 130
0.253865 0.092123 -0.057838 139 100 115
0.029372 0.057745 0.036014 134 100 120
0.137278 -0.576760 0.542167 53 100 201
0.070505 -0.030253 -0.187960 123 100 131
-0.112989 0.050408 -0.075446 133 100 121
0.131259 0.046745 -0.173356 133 100 121
-0.062496 0.025257 0.013944 130 100 124
0.084129 0.050989 -0.103000 134 100 120
-0.294001 -0.275107 -0.303707 92 100 162
0.126310 0.077855 -0.037193 137 100 117
-0.142156 0.009147 -0.025670 128 100 126
-0.154083 -0.017783 0.012959 125 100 129
-0.103190 0.049280 0.181947 133 100 121
0.090281 0.054879 0.198314 134 100 120
0.038165 -0.005408 0.145952 126 100 128
-0.176390 0.032115 -0.039976 131 100 123
-0.149902 -0.018761 -0.086101 125 100 129
-0.175778 0.006653 0.089092 128 100 126
-0.175046 0.105632 0.043270 140 100 114
-0.021126 0.051422 0.157992 134 100 120
-0.038307 0.048083 -0.178254 133 100 121
0.081269 0.005429 -0.290874 128 100 126
-0.052370 0.020118 -0.151989 130 100 124
-0.124701 0.004704 -0.134752 128 100 126
-0.217143 0.000301 -0.042352 127 100 127
-0.186301 0.027174 -0.004683 130 100 124
-0.245361 0.310579 -0.294774 167 100 87
0.016297 0.028902 0.220653 131 100 123
0.056462 0.077240 0.203658 137 100 117
-0.164220 -0.005463 -0.196193 126 100 128
-0.274228 0.032635 -0.097396 131 100 123
-0.110947 0.088378 0.148162 138 100 116
-0.327279 0.477445 -0.060763 188 100 66
-0.221800 0.024691 0.094999 130 100 124
-0.193906 0.059349 -0.026217 135 100 119
0.006531 0.021556 -0.037900 130 100 124
-0.055346 0.085153 0.033211 138 100 116
0.158793 0.015030 -0.188134 129 100 125
0.165604 0.032376 -0.080172 131 100 123
-0.137064 0.077407 0.175440 137 100 117
-0.099159 0.042679 -0.188488 132 100 122
-0.134473 0.054159 0.092060 134 100 120
-0.182956 0.020203 -0.006413 130 100 124
0.175179 0.046317 -0.108182 133 100 121
-0.234860 0.069415 0.007548 136 100 118
0.291718 -0.735835 0.366522 33 100 221
0.208285 0.013727 -0.240548 129 100 125
0.090125 0.071368 0.140108 136 100 118
0.078326 0.066076 0.190225 135 100 119
-0.000282 0.069097 0.249665 136 100 118
-0.045411 0.007591 -0.244670 128 100 126
-0.033273 -0.022987 0.185812 124 100 130
0.116195 0.008878 -0.143452 128 100 126
0.026743 0.035134 0.225471 131 100 123
0.016973 0.020374 -0.208103 130 100 124
0.165336 0.071134 0.061794 136 100 118
-0.273604 0.011096 -0.075919 128 100 126
0.178268 0.082617 0.165472 138 100 116
-0.036018 -0.024396 0.218404 124 100 130
0.084137 0.168641 -0.155153 149 100 105
-0.037985 0.008286 -0.214851 128 100 126
0.202321 -0.004846 -0.067181 126 100 128
-0.099968 -0.000229 -0.243385 127 100 127
0.108528 -0.010787 0.146604 126 100 128
0.175169 -0.014432 0.204996 125 100 129
0.171357 0.017023 0.033262 129 100 125
-0.165427 0.069969 0.208272 136 100 118
0.042304 0.010749 0.249702 128 100 126
0.235320 -0.329118 -0.243443 85 100 169
-0.219682 -0.002935 -0.120008 127 100 127
-0.069255 -0.006770 -0.167199 126 100 128
-0.253064 0.003781 0.024474 127 100 127
-0.120413 0.035206 -0.057605 131 100 123
-0.227621 0.020783 -0.014689 130 100 124
-0.111444 0.037190 -0.232721 132 100 122
0.236793 0.020945 0.058850 130 100 124
-0.107734 -0.023848 -0.109398 124 100 130
-0.119605 0.059104 0.181349 135 100 119
-0.029437 0.000235 0.127409 127 100 127
-0.176796 0.063463 0.117322 135 100 119
0.182010 0.086962 -0.031825 138 100 116
0.198345 0.037704 -0.078732 132 100 122
0.184258 -0.004662 -0.057043 126 100 128
-0.106932 0.070310 0.189520 136 100 118
0.155924 0.052336 0.170861 134 100 120
0.193188 0.030275 0.061979 131 100 123
-0.386951 -0.297867 0.103495 89 100 165
0.122915 0.018716 -0.177077 129 100 125
-0.044385 0.095542 -0.138538 139 100 115
0.063333 0.085416 -0.176614 138 100 116
-0.304555 -0.031176 -0.089687 123 100 131
0.095056 0.058301 0.083681 134 100 120
-0.243310 0.042077 0.071358 132 100 122
-0.192327 -0.036921 0.019476 122 100 132
-0.130968 0.043824 0.094470 133 100 121
0.152093 0.069712 -0.086026 136 100 118
-0.113308 0.078691 0.241764 137 100 117
-0.165172 -0.031648 0.260565 123 100 131
-0.178363 0.023708 -0.053447 130 100 124
-0.021290 0.011254 -0.112297 128 100 126
-0.169148 0.062673 -0.047629 135 100 119
0.096483 0.053060 0.240463 134 100 120
-0.140080 0.066361 0.012219 135 100 119
-0.108305 0.030133 0.157144 131 100 123
0.007098 -0.000323 -0.143466 127 100 127
0.164700 -0.006484 0.040919 126 100 128
-0.066602 -0.012831 -0.257293 125 100 129
0.051240 0.049555 0.232814 133 100 121
-0.230133 -0.029852 -0.032573 123 100 131
0.217919 0.062807 0.171357 135 100 119
-0.083614 0.104411 0.179972 140 100 114
-0.057464 0.004944 -0.165991 128 100 126
-0.227364 -0.019795 0.261063 124 100 130
-0.246984 0.018354 -0.145287 129 100 125
0.121262 0.039811 0.009106 132 100 122
0.145816 0.045410 0.046961 133 100 121
0.354193 -0.050891 0.309529 121 100 133
-0.023223 0.057664 -0.277711 134 100 120
-0.204495 0.105011 0.301137 140 100 114
-0.102103 0.019295 0.116410 129 100 125
0.363870 0.076868 -0.131401 137 100 117
-0.273420 0.043937 -0.080998 133 100 121
-0.187779 0.033097 0.157942 131 100 123
0.247844 0.021169 0.147605 130 100 124
0.055280 0.067163 0.149626 136 100 118
0.187825 0.017168 0.133500 129 100 125
-0.098767 0.011793 0.120825 129 100 125
0.334373 -0.316050 0.150105 87 100 167
-0.161160 0.024102 0.154356 130 100 124
-0.048721 0.050963 0.184655 133 100 121
-0.173014 0.037756 -0.107120 132 100 122
0.104299 0.005506 0.251259 128 100 126
-0.167272 0.012751 0.131732 129 100 125
-0.017795 0.070382 -0.333342 136 100 118
-0.049581 0.007682 0.264313 128 100 126
0.284659 -0.621229 -0.177053 48 100 206
0.137579 -0.025231 0.307191 124 100 130
-0.159093 0.070348 -0.040409 136 100 118
-0.200681 -0.208450 -0.395433 100 100 154
-0.109515 -0.013057 0.123986 125 100 129
0.221011 0.370634 -0.364728 174 100 80
-0.221555 0.039003 0.083523 132 100 122
-0.260259 0.090477 0.080777 139 100 115
0.129888 0.148735 -0.127016 146 100 108
-0.090957 0.027155 -0.096361 130 100 124
0.225716 0.077982 0.162645 137 100 117
0.161485 0.074332 0.105876 136 100 118
-0.122739 0.038387 -0.060808 132 100 122
-0.059151 0.041300 0.119043 132 100 122
0.172302 0.004471 -0.079367 128 100 126
-0.072292 0.024761 0.046724 130 100 124
0.161797 0.041406 0.170843 132 100 122
-0.165907 0.021853 0.192552 130 100 124
-0.102080 -0.001389 -0.212167 127 100 127
-0.202105 0.008103 -0.228743 128 100 126
-0.198038 -0.004193 -0.255528 126 100 128
-0.149771 0.024895 -0.292889 130 100 124
-0.069242 0.028225 -0.214783 131 100 123
-0.065394 0.018229 0.186317 129 100 125
-0.003443 0.037031 -0.204870 132 100 122
0.212404 0.037262 0.047035 132 100 122
0.046541 0.086984 -0.260467 138 100 116
-0.152589 0.013300 0.111533 129 100 125
0.115547 0.065897 -0.045430 135 100 119
0.046428 0.061621 -0.237063 135 100 119
0.065639 0.033174 -0.198562 131 100 123
-0.206877 0.057783 -0.013753 134 100 120
-0.026782 0.026842 -0.214158 130 100 124
0.114811 0.016540 0.196003 129 100 125
0.095062 -0.694685 0.354995 38 100 216
-0.191917 -0.001838 0.193439 127 100 127
-0.162982 0.038729 -0.136502 132 100 122
0.162563 -0.004786 0.243573 126 100 128
0.108673 0.002682 -0.124210 127 100 127
0.113830 0.041166 -0.173079 132 100 122
-0.108415 0.061485 0.078720 135 100 119
0.197264 0.045433 0.067805 133 100 121
0.148137 -0.002952 0.012500 127 100 127
-0.040993 0.091582 0.065552 139 100 115
-0.011452 0.050145 0.155104 133 100 121
0.203454 0.292873 -0.198480 164 100 90
-0.003323 0.047199 -0.261763 133 100 121
-0.088606 0.022408 0.130744 130 100 124
-0.269467 -0.000863 0.002562 127 100 127
-0.130065 0.042598 0.036866 132 100 122
-0.122236 0.014191 0.125596 129 100 125
0.203532 -0.000301 0.263415 127 100 127
0.114505 0.048502 -0.141926 133 100 121
0.068073 0.077101 0.240935 137 100 117
0.246174 0.050142 0.055371 133 100 121
-0.223548 0.030156 -0.163206 131 100 123
0.167144 0.020781 -0.101249 130 100 124
-0.000904 -0.014788 -0.269199 125 100 129
0.095195 0.023376 -0.153420 130 100 124
0.000477 0.044903 0.183047 133 100 121
-0.183951 0.018824 -0.123664 129 100 125
0.222127 -0.639756 0.172434 45 100 209
-0.029858 0.023297 0.231848 130 100 124
0.127228 0.005917 -0.162505 128 100 126
0.023643 0.008785 0.170075 128 100 126
-0.281798 -0.743599 -0.263313 32 100 222
-0.195681 0.028037 0.083204 131 100 123
0.297183 0.086041 0.058861 138 100 116
-0.115506 0.060297 -0.265260 135 100 119
0.150771 0.002110 -0.239496 127 100 127
-0.042253 0.053851 0.210118 134 100 120
0.033585 0.014658 -0.197448 129 100 125
-0.039318 0.022570 0.105947 130 100 124
0.138746 0.020604 -0.213032 130 100 124
0.077486 0.071674 0.204544 136 100 118
-0.119145 0.054259 -0.147257 134 100 120
-0.044291 0.040800 -0.137232 132 100 122
-0.031191 0.038562 0.110031 132 100 122
-0.040330 -0.013441 0.249794 125 100 129
-0.183520 0.016336 -0.192799 129 100 125
0.082403 0.009990 -0.127212 128 100 126
-0.035702 0.025024 -0.194095 130 100 124
0.226444 0.018768 0.038620 129 100 125
0.143738 0.084912 0.219576 138 100 116
0.138694 0.025843 -0.015103 130 100 124
-0.148074 -0.041786 0.060869 122 100 132
0.126058 0.003028 -0.246782 127 100 127
0.242923 0.071697 -0.144901 136 100 118
0.279216 0.087795 -0.064144 138 100 116
0.151554 0.037081 0.223717 132 100 122
-0.107913 0.057583 0.154640 134 100 120
-0.174307 0.015093 -0.156932 129 100 125
-0.066259 0.006031 0.240276 128 100 126
0.069868 0.078676 0.295903 137 100 117
0.186318 0.040093 0.178810 132 100 122
0.189977 0.063922 0.009899 135 100 119
-0.226731 0.009224 0.141228 128 100 126
0.215910 -0.005256 0.024154 126 100 128
0.181776 0.041533 0.032458 132 100 122
0.033379 0.009064 0.164005 128 100 126
0.244569 0.082888 0.067208 138 100 116
0.148738 -0.005097 0.146784 126 100 128
-0.218813 0.002480 0.118910 127 100 127
0.179121 0.052826 0.091431 134 100 120
0.333294 0.333382 -0.092385 170 100 84
-0.174478 0.020711 0.165152 130 100 124
-0.084058 0.012760 -0.102178 129 100 125
0.019715 0.021377 -0.179972 130 100 124
0.181560 0.036034 0.421338 132 100 122
0.248728 -0.021665 -0.027189 124 100 130
-0.186390 0.013410 -0.092328 129 100 125
0.165369 0.080634 -0.138868 137 100 117
0.178584 0.075231 -0.014280 137 100 117
0.047476 0.098544 0.224617 140 100 114
0.075775 0.024579 0.186970 130 100 124
-0.158816 -0.012658 0.184811 125 100 129
0.181910 0.019565 -0.100972 129 100 125
-0.303147 0.072798 -0.105214 136 100 118
-0.358138 0.066430 -0.064157 135 100 119
-0.295901 -0.001933 -0.144444 127 100 127
0.090707 0.037549 -0.285069 132 100 122
-0.094485 0.103247 -0.110161 140 100 114
-0.059248 0.037590 0.098042 132 100 122
-0.165422 0.034861 -0.017910 131 100 123
0.060703 0.019276 -0.184768 129 100 125
-0.132586 -0.011171 0.129934 126 100 128
0.004845 0.035637 0.102533 132 100 122
-0.275944 0.054271 -0.066748 134 100 120
-0.100300 0.054848 -0.012535 134 100 120
-0.068787 0.047598 0.217539 133 100 121
-0.177711 0.081028 -0.138785 137 100 117
-0.148688 0.031986 -0.017085 131 100 123
0.112728 0.031512 -0.161141 131 100 123
-0.164881 0.031438 -0.002222 131 100 123
-0.210238 0.047098 0.008743 133 100 121
-0.172491 0.022189 -0.104783 130 100 124
0.207692 0.009574 0.022794 128 100 126
0.207992 0.061561 -0.076327 135 100 119
-0.424556 -0.534594 0.206406 59 100 195
-0.072912 0.014726 0.240508 129 100 125
0.152985 0.044199 -0.061751 133 100 121
0.182053 -0.546603 -0.228266 57 100 197
0.193188 0.048876 0.119635 133 100 121
0.010518 -0.012306 0.151358 125 100 129
-0.220876 0.002689 -0.089161 127 100 127
0.142812 0.134821 -0.072245 144 100 110
-0.009695 0.011586 0.237586 128 100 126
0.233804 0.112553 -0.107710 141 100 113
-0.109789 0.017379 -0.130211 129 100 125
0.149343 0.017423 0.035541 129 100 125
0.062401 0.054838 -0.106813 134 100 120
-0.261784 -0.028151 -0.075985 123 100 131
-0.077607 0.029470 0.220876 131 100 123
0.121002 0.059264 0.016337 135 100 119
-0.000877 -0.006440 0.173886 126 100 128
0.182012 0.058741 -0.113211 134 100 120
-0.059428 0.053673 0.177726 134 100 120
-0.076092 0.000608 0.196026 127 100 127
-0.261508 0.034474 -0.025829 131 100 123
0.114716 0.030745 0.153342 131 100 123
0.065324 0.066160 0.259859 135 100 119
0.079893 0.036553 0.269275 132 100 122
0.196286 -0.012365 0.236021 125 100 129
-0.096895 0.020125 0.145455 130 100 124
-0.121444 0.024552 0.146623 130 100 124
0.224368 0.027260 -0.114072 130 100 124
-0.134481 0.045627 -0.062022 133 100 121
0.180119 -0.006219 -0.084175 126 100 128
0.113507 0.058612 -0.162257 134 100 120
0.108513 0.034707 -0.058776 131 100 123
0.185232 0.026694 0.025043 130 100 124
-0.217881 0.034055 -0.115333 131 100 123
0.198637 0.069338 0.116942 136 100 118
-0.178412 0.045310 -0.069675 133 100 121
0.213738 0.026883 0.051171 130 100 124
-0.164212 0.044044 -0.195804 133 100 121
-0.033274 0.100424 -0.189629 140 100 114
0.210470 -0.021336 -0.023596 124 100 130
-0.031252 0.055485 0.086566 134 100 120
0.159029 -0.022756 0.135478 124 100 130
0.169059 0.010316 -0.060746 128 100 126
0.016025 0.029750 -0.355257 131 100 123
0.153780 0.101413 -0.076237 140 100 114
-0.173184 0.036620 -0.172385 132 100 122
-0.219816 0.036180 -0.083741 132 100 122
-0.304354 0.078084 0.059316 137 100 117
-0.187590 0.039767 0.179992 132 100 122
-0.154519 0.073694 0.044934 136 100 118
0.075341 0.009792 0.202560 128 100 126
-0.012210 0.024257 0.160316 130 100 124
0.151606 0.074616 -0.159665 137 100 117
-0.028328 0.058858 -0.291181 135 100 119
0.482255 -0.652553 0.141546 44 100 210
0.064624 0.040898 0.161386 132 100 122
0.012741 0.093481 -0.100709 139 100 115
-0.015807 -0.010004 0.216112 126 100 128
-0.220552 0.008330 -0.167481 128 100 126
-0.019133 -0.018756 -0.183289 125 100 129
-0.034375 0.059303 -0.164835 135 100 119
-0.217572 0.018339 0.164072 129 100 125
-0.227878 0.009814 -0.038019 128 100 126
-0.031361 0.073482 0.177074 136 100 118
-0.183932 0.020059 0.148496 130 100 124
0.130755 0.108117 0.044698 141 100 113
0.254104 -0.008491 0.195456 126 100 128
-0.117675 0.044332 -0.223731 133 100 121
-0.054851 0.025567 -0.137487 130 100 124
0.438374 -0.706332 -0.072595 37 100 217
-0.065403 0.049938 0.159181 133 100 121
0.189527 0.046604 -0.029812 133 100 121
0.000208 0.027424 0.253367 130 100 124
-0.027356 0.005415 0.211088 128 100 126
0.051021 0.074565 0.135941 137 100 117
0.159777 0.067080 -0.069618 136 100 118
-0.084823 0.046113 -0.079060 133 100 121
-0.023148 0.052258 0.129350 134 100 120
-0.078698 0.033424 0.104259 131 100 123
0.271160 0.026840 0.071936 130 100 124
-0.063812 0.010918 -0.242888 128 100 126
-0.170079 0.020190 0.242181 130 100 124
-0.276213 0.006990 0.036916 128 100 126
-0.179214 0.060116 -0.188439 135 100 119
0.048835 0.001261 0.015277 127 100 127
-0.227921 0.060196 0.019387 135 100 119
0.251288 0.068177 -0.165284 136 100 118
0.161400 0.056159 -0.105970 134 100 120
-0.097725 0.034907 -0.116463 131 100 123
-0.130869 0.001727 0.100137 127 100 127
0.066930 0.074202 0.186726 136 100 118
0.065796 0.082427 0.017434 138 100 116
0.137696 0.046216 -0.099539 133 100 121
0.464917 0.027529 0.246440 131 100 123
-0.343319 -0.007989 0.318480 126 100 128
-0.164128 0.070601 -0.079462 136 100 118
0.073543 0.022756 0.206459 130 100 124
0.123446 0.020249 -0.115590 130 100 124
-0.150482 0.029208 -0.200618 131 100 123
0.130199 0.140282 -0.043806 145 100 109
-0.182467 0.037448 -0.128875 132 100 122
0.476677 0.026859 0.222302 130 100 124
0.072748 0.017060 0.073453 129 100 125
-0.356094 -0.094480 -0.019002 115 100 139
0.141283 0.002256 0.198338 127 100 127
-0.251067 0.056453 -0.044493 134 100 120
-0.111480 -0.006095 -0.166096 126 100 128
0.184655 0.218843 -0.337187 155 100 99
-0.058257 0.084728 0.231523 138 100 116
-0.219117 0.068760 -0.369347 136 100 118
-0.151224 0.091770 -0.251644 139 100 115
0.162190 0.001721 -0.269133 127 100 127
-0.092892 0.051688 -0.188812 134 100 120
0.163523 0.074434 -0.014947 136 100 118
-0.294798 0.011858 0.144697 129 100 125
-0.045525 0.031018 0.204124 131 100 123
0.061237 0.067201 -0.219031 136 100 118
0.122499 0.038278 -0.167439 132 100 122
-0.044667 0.046296 -0.215807 133 100 121
-0.020717 0.028384 -0.131501 131 100 123
-0.078895 0.061006 -0.112408 135 100 119
-0.133399 0.022712 0.094710 130 100 124
0.225078 0.060432 -0.012574 135 100 119
0.022392 0.062447 0.263008 135 100 119
0.084555 0.012562 -0.084029 129 100 125
-0.305192 -0.018167 0.091428 125 100 129
-0.281775 0.354708 -0.240613 172 100 82
0.185084 0.033555 -0.087079 131 100 123
-0.102213 0.045414 -0.034883 133 100 121
-0.169335 -0.047469 -0.050796 121 100 133
-0.026720 0.063260 0.137845 135 100 119
0.282962 0.004363 0.212551 128 100 126
-0.131137 0.031499 -0.113388 131 100 123
-0.115170 0.063759 -0.143211 135 100 119
0.152094 0.020050 -0.086425 130 100 124
-0.147720 -0.045395 0.188148 121 100 133
0.023073 0.049220 -0.303032 133 100 121
-0.205823 -0.001897 0.151446 127 100 127
-0.139871 0.047203 -0.017969 133 100 121
-0.021964 0.063009 -0.228675 135 100 119
0.178103 0.071058 -0.216612 136 100 118
0.160283 0.061178 -0.151938 135 100 119
-0.205284 0.015166 -0.190602 129 100 125
-0.076867 0.091454 0.165023 139 100 115
-0.225077 -0.051230 0.026900 120 100 134
0.100416 0.086516 -0.225133 138 100 116
0.047677 0.040801 -0.127289 132 100 122
0.073275 0.011970 0.198019 129 100 125
-0.185853 0.013056 0.044723 129 100 125
0.332463 0.008085 0.053152 128 100 126
0.057725 0.018429 -0.238992 129 100 125
0.096753 0.003312 -0.045792 127 100 127
-0.185312 -0.032146 -0.114802 123 100 131
-0.067895 0.067113 -0.409891 136 100 118
-0.159152 0.057169 -0.240133 134 100 120
0.086215 0.104000 0.101270 140 100 114
0.090916 0.005198 0.067773 128 100 126
0.023465 0.010465 0.170385 128 100 126
0.028535 0.021510 -0.095602 130 100 124
0.039009 -0.015435 0.115848 125 100 129
-0.012300 0.030913 -0.241107 131 100 123
0.121286 0.007434 0.057906 128 100 126
-0.146308 0.034463 -0.329434 131 100 123
-0.051995 0.011250 0.114846 128 100 126
0.010256 0.034594 -0.272292 131 100 123
0.012058 0.032956 0.249431 131 100 123
0.188106 0.024331 -0.095052 130 100 124
0.136479 0.054026 0.098871 134 100 120
-0.043108 -0.019891 0.144206 124 100 130
-0.029525 -0.388532 0.444077 77 100 177
0.162678 0.015899 -0.047301 129 100 125
-0.143075 0.058420 -0.285308 134 100 120
-0.199978 0.032817 0.043125 131 100 123
0.227365 -0.002560 0.097119 127 100 127
0.288327 0.022227 0.049335 130 100 124
0.128198 0.014352 0.087280 129 100 125
-0.225307 0.046966 -0.153873 133 100 121
-0.051885 0.047496 -0.248782 133 100 121
-0.171399 0.037168 -0.008182 132 100 122
-0.055849 -0.004895 0.167952 126 100 128
0.234822 0.063707 0.180860 135 100 119
0.130538 -0.020017 -0.120323 124 100 130
-0.191084 0.021094 -0.056507 130 100 124
0.061667 0.044586 0.195652 133 100 121
-0.066203 0.315096 -0.301322 167 100 87
-0.029009 0.014861 -0.208006 129 100 125
0.030714 0.007982 0.247722 128 100 126
0.003718 0.061241 -0.190650 135 100 119
-0.145902 0.008137 0.153398 128 100 126
-0.030256 -0.493113 -0.461441 64 100 190
-0.077948 -0.013197 -0.225632 125 100 129
-0.046146 0.036128 0.268203 132 100 122
-0.238128 0.029992 -0.085334 131 100 123
0.121302 -0.037403 -0.068122 122 100 132
0.109982 0.049711 -0.163187 133 100 121
-0.039650 0.010400 0.173247 128 100 126
-0.108873 -0.021241 0.058814 124 100 130
0.021521 0.031607 0.147646 131 100 123
0.144102 0.066916 -0.065754 136 100 118
0.201896 -0.013377 0.247290 125 100 129
-0.133112 0.030942 -0.114186 131 100 123
-0.069617 0.037315 -0.334872 132 100 122
-0.050206 0.031526 -0.144987 131 100 123
0.155194 0.071829 -0.002860 136 100 118
-0.252972 -0.055514 -0.290147 120 100 134
-0.107268 0.037385 -0.118344 132 100 122
0.389176 -0.014337 -0.043775 125 100 129
-0.198528 0.046167 -0.113350 133 100 121
0.211324 0.056713 0.069737 134 100 120
0.042455 0.005144 0.134723 128 100 126
0.114226 0.068786 -0.045143 136 100 118
0.105154 0.045358 0.395769 133 100 121
-0.198174 0.024577 0.160259 130 100 124
0.133722 0.066770 -0.169141 136 100 118
-0.425775 -0.238667 -0.202227 97 100 157
0.315929 0.110086 0.304319 141 100 113
0.176604 0.017243 0.108113 129 100 125
0.034388 -0.002426 0.209339 127 100 127
-0.286804 -0.011292 0.039673 126 100 128
0.055732 0.040412 -0.173009 132 100 122
-0.215276 0.013480 -0.005205 129 100 125
-0.344626 -0.001762 0.388687 127 100 127
0.124776 -0.039218 0.316848 122 100 132
0.224466 0.008762 0.091969 128 100 126
-0.055082 0.060754 0.201369 135 100 119
0.112101 0.058480 0.145766 134 100 120
0.203382 0.043924 -0.143631 133 100 121
-0.187895 0.065042 -0.183340 135 100 119
0.094827 0.054632 -0.020517 134 100 120
-0.041743 0.026028 -0.218631 130 100 124
-0.200851 0.011221 0.042601 128 100 126
-0.461352 0.093212 0.065156 139 100 115
-0.010240 -0.001405 0.132895 127 100 127
0.256449 0.309829 0.042612 167 100 87
-0.123134 0.007943 0.048011 128 100 126
0.128136 -0.574654 0.376805 54 100 200
-0.143364 0.010024 -0.014036 128 100 126
0.062399 0.009170 0.165644 128 100 126
-0.153869 -0.015695 -0.067431 125 100 129
0.184934 0.006671 0.113187 128 100 126
-0.191774 0.067317 0.121412 136 100 118
-0.108401 -0.015411 -0.243361 125 100 129
-0.282403 0.069203 0.105136 136 100 118
-0.163116 -0.224429 0.327299 98 100 156
-0.202816 0.027342 -0.097335 130 100 124
0.153924 0.050148 0.053140 133 100 121
0.230591 0.154063 -0.261294 147 100 107
-0.251918 0.035208 -0.006757 131 100 123
-0.184964 -0.036571 0.292270 122 100 132
-0.297275 -0.058962 0.057081 119 100 135
-0.179166 0.039984 -0.018965 132 100 122
-0.150979 0.079810 -0.295900 137 100 117
-0.145359 -0.052959 0.043814 120 100 134
0.057053 0.033554 -0.082313 131 100 123
0.213451 -0.002031 0.219042 127 100 127
0.266320 0.063402 0.178776 135 100 119
0.174579 0.047950 -0.055529 133 100 121
-0.209012 0.022211 0.026529 130 100 124
0.044267 0.018533 0.195326 129 100 125
-0.150385 0.039080 -0.033916 132 100 122
-0.178919 -0.000958 0.054679 127 100 127
0.165758 0.032066 -0.104539 131 100 123
-0.292716 -0.092675 -0.217231 115 100 139
-0.172372 -0.015473 -0.167407 125 100 129
0.007215 -0.016774 0.171364 125 100 129
0.142576 0.040311 -0.124373 132 100 122
0.139231 0.011965 0.190328 129 100 125
0.371838 0.029384 0.114557 131 100 123
0.238020 0.076017 0.221694 137 100 117
0.019785 0.022349 0.230636 130 100 124
-0.212578 0.072191 -0.142108 136 100 118
0.101825 0.051107 0.225411 134 100 120
0.061583 0.023194 0.221463 130 100 124
0.112436 0.041394 -0.211205 132 100 122
-0.088362 0.044543 0.167066 133 100 121
-0.180221 0.041978 -0.100344 132 100 122
0.149782 0.096548 0.187584 139 100 115
-0.036776 0.040986 -0.234026 132 100 122
-0.057738 0.014590 0.109302 129 100 125
0.028576 0.087989 -0.121823 138 100 116
0.118475 0.090055 0.216787 138 100 116
0.187974 0.433040 -0.025376 182 100 72
-0.251857 -0.016276 0.405246 125 100 129
0.061777 0.034430 0.234868 131 100 123
0.146929 0.013008 -0.102693 129 100 125
0.033068 0.057641 0.040644 134 100 120
-0.158989 -0.004419 -0.215928 126 100 128
0.107621 0.084809 -0.088339 138 100 116
-0.327402 0.008351 -0.209976 128 100 126
0.139676 -0.007902 -0.062375 126 100 128
0.220802 0.067747 -0.055285 136 100 118
-0.018945 0.019301 -0.274759 129 100 125
0.213664 -0.664775 -0.253187 42 100 212
-0.184513 -0.018115 -0.067521 125 100 129
-0.013938 0.019395 0.126316 129 100 125
0.192850 0.031775 0.228753 131 100 123
0.172607 0.059561 -0.176139 135 100 119
0.163735 0.062977 0.039074 135 100 119
-0.180185 -0.028961 0.088379 123 100 131
-0.111074 0.069900 0.166284 136 100 118
0.115994 0.008404 0.143233 128 100 126
0.218615 0.030409 0.172151 131 100 123
-0.127816 0.186281 0.168099 151 100 103
0.154952 -0.015959 0.094220 125 100 129
0.229863 0.006547 0.124644 128 100 126
0.099190 0.010787 -0.025683 128 100 126
0.220425 -0.025288 0.114946 124 100 130
-0.052870 0.030328 -0.229713 131 100 123
-0.239411 0.020059 0.038009 130 100 124
-0.074092 0.010835 -0.251055 128 100 126
-0.212857 0.039531 -0.140738 132 100 122
-0.042741 0.046337 0.134015 133 100 121
0.160841 0.016676 -0.040951 129 100 125
-0.175605 -0.007119 0.137082 126 100 128
0.185260 0.031588 -0.000049 131 100 123
-0.038180 -0.015227 0.075240 125 100 129
0.282428 -0.061896 0.154693 119 100 135
-0.025736 0.061863 -0.201412 135 100 119
-0.315589 0.199271 0.121911 152 100 102
0.171946 0.055304 0.243046 134 100 120
-0.219890 -0.012765 -0.127933 125 100 129
0.157442 0.015088 -0.076994 129 100 125
-0.155765 0.030682 -0.196303 131 100 123
-0.168266 0.026609 0.134208 130 100 124
-0.213137 0.039429 -0.024278 132 100 122
-0.003439 0.098599 -0.123173 140 100 114
0.105053 0.036291 0.151161 132 100 122
-0.112493 -0.004221 -0.119539 126 100 128
-0.147124 0.025576 -0.184907 130 100 124
0.210812 0.024259 -0.017832 130 100 124
-0.149714 0.042446 -0.130689 132 100 122
-0.205686 0.074305 0.042977 136 100 118
-0.070438 0.045992 -0.192789 133 100 121
-0.220856 0.029417 -0.016156 131 100 123
-0.154047 -0.204498 -0.259047 101 100 153
-0.119400 0.017888 0.057583 129 100 125
0.154446 0.063384 -0.146824 135 100 119
0.107874 0.334710 -0.195289 170 100 84
-0.025975 -0.012125 0.228422 125 100 129
-0.202975 0.082824 -0.149498 138 100 116
-0.143580 0.006641 0.075989 128 100 126
0.120704 0.063144 -0.171877 135 100 119
-0.066379 0.026739 0.000062 130 100 124
-0.148772 0.039511 -0.225932 132 100 122
0.180484 0.028916 0.119706 131 100 123
0.191075 0.028725 0.149615 131 100 123
-0.295078 0.128074 0.160042 143 100 111
0.122204 -0.044377 0.043295 121 100 133
-0.093132 0.031685 0.157780 131 100 123
0.087622 0.017653 0.037798 129 100 125
-0.101935 -0.010619 0.133328 126 100 128
-0.264338 0.066608 0.009065 135 100 119
-0.069680 0.050805 0.236996 133 100 121
0.188560 -0.004410 0.170448 126 100 128
-0.090966 0.011108 -0.156071 128 100 126
-0.138875 -0.016065 0.025545 125 100 129
0.278128 0.053626 0.235129 134 100 120
-0.032606 0.064892 -0.247166 135 100 119
0.240605 0.091834 0.149227 139 100 115
-0.156183 0.050638 0.184373 133 100 121
0.163916 0.061721 -0.110122 135 100 119
-0.140280 -0.018200 0.166307 125 100 129
-0.141004 0.037189 0.168736 132 100 122
-0.283574 -0.119819 -0.223811 112 100 142
-0.095163 0.055525 -0.188468 134 100 120
-0.160101 0.002954 -0.039205 127 100 127
-0.067900 -0.841773 -0.503666 20 100 234
-0.060503 0.014603 0.241374 129 100 125
-0.204227 0.007754 -0.128600 128 100 126
-0.165047 0.061956 -0.160622 135 100 119
0.147121 0.021440 -0.175365 130 100 124
-0.145713 0.052160 0.102923 134 100 120
0.207111 0.029375 -0.085530 131 100 123
-0.088214 0.051726 0.053557 134 100 120
-0.061424 0.045524 0.322028 133 100 121
0.148925 -0.040689 -0.406342 122 100 132
-0.065699 0.056483 -0.305985 134 100 120
0.096138 0.012610 0.217802 129 100 125
0.157575 0.062736 -0.174267 135 100 119
0.316037 0.031279 0.255829 131 100 123
0.246079 0.033744 -0.001316 131 100 123
-0.133345 0.022254 -0.157911 130 100 124
0.333718 0.009686 0.289678 128 100 126
0.091469 0.038316 -0.209607 132 100 122
-0.070161 0.038519 0.193586 132 100 122
-0.006001 0.057138 0.217902 134 100 120
0.106440 0.051565 -0.208715 134 100 120
0.110759 0.033953 -0.162174 131 100 123
-0.219681 -0.281162 0.364234 91 100 163
-0.081283 0.057391 0.252591 134 100 120
-0.038804 0.034397 0.270209 131 100 123
0.199216 0.047928 0.046420 133 100 121
0.056491 -0.067646 0.139625 118 100 136
0.077353 0.014465 -0.070059 129 100 125
0.178022 0.037435 -0.127287 132 100 122
-0.037619 0.049706 -0.267850 133 100 121
-0.230459 0.082854 -0.089214 138 100 116
0.088929 0.013199 -0.105451 129 100 125
0.364048 0.009665 -0.199819 128 100 126
-0.100956 0.012228 -0.011730 129 100 125
0.138481 0.021198 -0.169660 130 100 124
0.214395 0.000639 0.107837 127 100 127
0.157530 0.061744 0.015448 135 100 119
0.126060 0.014160 0.089198 129 100 125
0.218714 0.055618 -0.028128 134 100 120
0.011740 0.068761 0.153410 136 100 118
-0.105726 0.044401 -0.248683 133 100 121
0.031304 0.056902 -0.232641 134 100 120
-0.042601 0.038269 0.133402 132 100 122
0.106404 0.059306 0.105727 135 100 119
0.069998 0.040923 0.152221 132 100 122
0.071171 0.116830 0.220906 142 100 112
-0.049539 0.055719 -0.232115 134 100 120
0.149462 0.071355 0.131396 136 100 118
0.189731 0.025521 -0.031247 130 100 124
0.168067 0.019475 0.182480 129 100 125
0.146320 -0.014659 0.273870 125 100 129
-0.020782 0.068299 -0.233076 136 100 118
-0.130722 0.043623 0.149958 133 100 121
0.237611 0.037625 -0.023483 132 100 122
-0.382832 -0.071181 -0.367411 118 100 136
-0.197550 0.021344 -0.025880 130 100 124
0.025538 0.049733 0.171598 133 100 121
-0.147249 0.088525 -0.121970 138 100 116
-0.034719 0.113889 -0.213026 142 100 112
0.200175 0.005924 0.027611 128 100 126
0.159906 0.025561 -0.019866 130 100 124
-0.156601 0.056249 -0.087504 134 100 120
-0.191534 0.000060 0.062343 127 100 127
0.226199 0.016984 -0.089875 129 100 125
-0.164010 -0.001303 -0.019546 127 100 127
0.161120 0.029959 -0.075771 131 100 123
-0.174065 0.074974 0.166139 137 100 117
-0.188863 0.008024 -0.150128 128 100 126
0.054942 0.059057 0.213973 135 100 119
-0.191317 -0.017500 -0.000074 125 100 129
-0.140623 0.019393 -0.235407 129 100 125
-0.052728 0.075615 -0.152366 137 100 117
-0.030396 -0.083703 0.473712 116 100 138
0.178399 0.015464 0.122078 129 100 125
-0.207259 0.022626 -0.025731 130 100 124
0.121691 0.035499 -0.168689 132 100 122
-0.103276 0.078269 -0.168756 137 100 117
-0.205759 0.006798 0.104039 128 100 126
0.143957 0.059913 0.028030 135 100 119
-0.170257 -0.016733 -0.131452 125 100 129
-0.199358 0.035681 0.012220 132 100 122
0.221568 0.139505 0.063721 145 100 109
0.101489 -0.245671 0.383329 96 100 158
0.221338 0.130422 -0.026873 144 100 110
0.005176 -0.000066 0.180305 127 100 127
-0.229305 0.030107 -0.070130 131 100 123
0.177801 -0.003339 0.127674 127 100 127
0.284877 0.010452 -0.010481 128 100 126
0.215064 -0.010760 -0.032601 126 100 128
0.077788 0.022412 0.173577 130 100 124
0.248926 0.049775 0.219056 133 100 121
0.225324 0.041800 -0.080834 132 100 122
0.213794 0.053242 -0.079225 134 100 120
-0.203786 0.070537 0.095807 136 100 118
0.258341 0.050354 -0.016655 133 100 121
-0.434475 0.074336 0.211900 136 100 118
-0.123178 0.017516 0.190242 129 100 125
0.069383 -0.017490 -0.133336 125 100 129
0.103835 0.123313 0.107876 143 100 111
0.073852 0.010714 0.128288 128 100 126
-0.106995 -0.018873 0.398125 125 100 129
-0.232019 -0.017882 0.003565 125 100 129
-0.283950 0.046286 0.043014 133 100 121
-0.159731 0.014169 0.019979 129 100 125
-0.087175 0.014672 0.183945 129 100 125
0.177550 0.048061 -0.001137 133 100 121
0.171098 0.050115 -0.021539 133 100 121
0.108936 0.028892 -0.132163 131 100 123
-0.202089 0.003451 -0.068445 127 100 127
-0.086460 -0.042404 0.222127 122 100 132
-0.057451 0.065851 0.251701 135 100 119
0.508227 0.043888 -0.017180 133 100 121
-0.186032 0.018916 -0.048443 129 100 125
0.157085 0.054723 -0.078660 134 100 120
0.112031 0.059754 -0.286195 135 100 119
0.179869 0.007642 0.051320 128 100 126
-0.109064 0.001044 0.113218 127 100 127
0.026930 0.054751 0.211499 134 100 120
0.287872 -0.081688 0.066560 117 100 137
-0.134032 0.012836 -0.188791 129 100 125
0.197274 0.046711 -0.077973 133 100 121
-0.222799 -0.025289 -0.102471 124 100 130
-0.230085 0.085039 -0.017296 138 100 116
-0.218318 0.045596 0.045138 133 100 121
-0.277249 0.024936 -0.104579 130 100 124
-0.122275 0.090697 0.058367 139 100 115
-0.193059 -0.007275 -0.039751 126 100 128
0.265929 -0.660693 -0.177384 43 100 211
-0.189205 -0.006685 -0.106390 126 100 128
0.007218 -0.061565 0.081106 119 100 135
0.101707 0.023757 0.317843 130 100 124
0.073616 0.044842 -0.184315 133 100 121
0.150598 0.074079 0.104146 136 100 118
-0.055050 0.063447 -0.161777 135 100 119
-0.202291 0.043461 0.032678 133 100 121
0.071987 -0.049002 0.315641 121 100 133
-0.187581 0.025129 -0.138136 130 100 124
0.104156 0.034187 -0.101155 131 100 123
-0.124993 -0.013512 0.138092 125 100 129
-0.095516 0.092474 0.098550 139 100 115
-0.273361 0.049778 -0.106558 133 100 121
0.122321 0.017212 0.048790 129 100 125
-0.166712 0.000071 0.178957 127 100 127
0.162209 0.016116 0.042940 129 100 125
0.045550 0.441087 0.316676 183 100 71
-0.190988 0.039536 -0.143942 132 100 122
0.064541 0.089024 -0.155072 138 100 116
0.035822 0.013204 -0.129782 129 100 125
-0.068471 -0.051831 0.204597 120 100 134
0.019097 0.056688 -0.322848 134 100 120
0.077367 -0.010254 -0.260018 126 100 128
-0.179910 0.081605 -0.225586 137 100 117
-0.128463 0.046874 0.169749 133 100 121
-0.173850 0.039842 -0.110033 132 100 122
-0.079603 0.079375 0.288023 137 100 117
0.292556 -0.044835 0.224927 121 100 133
0.164151 0.071497 0.137408 136 100 118
-0.186636 0.029204 -0.241683 131 100 123
-0.167016 0.067566 -0.100139 136 100 118
-0.039687 0.026703 -0.278554 130 100 124
0.105740 0.022277 -0.122021 130 100 124
-0.087829 -0.033762 0.069406 123 100 131
-0.091470 0.070419 -0.097362 136 100 118
-0.120259 -0.011628 0.158071 126 100 128
-0.228256 -0.021321 0.103856 124 100 130
0.221018 -0.064193 0.035325 119 100 135
-0.207012 0.033509 -0.006106 131 100 123
0.089697 -0.010797 -0.169713 126 100 128
-0.239548 0.005290 0.020414 128 100 126
-0.157431 0.051201 -0.030555 134 100 120
0.034480 0.662000 0.287982 211 100 43
-0.176138 0.005400 0.144521 128 100 126
0.059883 0.052061 0.275481 134 100 120
0.095327 0.039868 0.123639 132 100 122
0.007351 0.064191 0.193716 135 100 119
0.113260 0.019098 -0.092187 129 100 125
-0.083579 0.051066 0.031090 134 100 120
0.073606 -0.060031 0.194346 119 100 135
0.217404 0.052323 -0.068599 134 100 120
0.188518 0.051490 -0.137136 134 100 120
-0.311243 0.048958 -0.084501 133 100 121
0.441855 -0.327609 0.108973 85 100 169
0.212772 0.012534 -0.026001 129 100 125
-0.139819 0.434757 -0.177962 182 100 72
-0.028608 0.066321 0.133547 135 100 119
0.040853 0.061922 0.238376 135 100 119
0.114466 0.046465 -0.198798 133 100 121
-0.144771 0.010967 -0.233439 128 100 126
0.153314 0.049666 0.218830 133 100 121
-0.222285 0.010582 0.027430 128 100 126
-0.015336 0.000524 0.126051 127 100 127
0.225087 0.104369 -0.065203 140 100 114
0.069901 0.050670 0.233223 133 100 121
0.195239 0.040451 0.321687 132 100 122
0.193514 0.067667 -0.244190 136 100 118
0.173614 0.076166 0.092326 137 100 117
-0.168445 0.057392 0.114894 134 100 120
0.195208 -0.002098 0.183955 127 100 127
0.086677 0.027762 0.241037 131 100 123
-0.226561 0.031747 -0.093939 131 100 123
-0.008670 0.096091 -0.229843 139 100 115
0.024192 0.540406 -0.362934 196 100 58
0.063301 0.083013 -0.171461 138 100 116
-0.048882 0.019730 -0.149897 130 100 124
0.142967 0.016561 0.187844 129 100 125
0.086170 0.026822 -0.157668 130 100 124
-0.056896 0.088652 -0.165525 138 100 116
0.237016 0.058598 0.062325 134 100 120
0.264695 0.048450 -0.052767 133 100 121
-0.033743 -0.004135 -0.204022 126 100 128
0.183699 0.048947 -0.085300 133 100 121
-0.012547 0.029961 -0.227318 131 100 123
0.138232 0.065432 0.017722 135 100 119
0.105656 -0.713278 -0.312430 36 100 218
0.225524 0.108445 -0.036304 141 100 113
-0.186833 0.001298 0.169381 127 100 127
0.255282 -0.036566 0.113192 122 100 132
-0.056198 0.075959 0.064640 137 100 117
0.069518 0.027060 0.074762 130 100 124
-0.071575 0.068299 0.115811 136 100 118
-0.192061 -0.555683 -0.238877 56 100 198
-0.324038 -0.589423 -0.223002 52 100 202
-0.252497 0.031502 0.126780 131 100 123
0.088833 0.005022 0.056088 128 100 126
0.061553 0.002031 0.288264 127 100 127
-0.173694 0.008961 -0.123906 128 100 126
-0.169553 0.048499 -0.020561 133 100 121
-0.168297 0.038727 -0.124082 132 100 122
0.057348 0.051395 0.234356 134 100 120
-0.036533 0.101297 -0.250563 140 100 114
0.185025 0.065525 0.167154 135 100 119
-0.156666 -0.026045 -0.172804 124 100 130
-0.062336 0.039602 0.116384 132 100 122
0.008772 0.038882 -0.140535 132 100 122
0.163571 -0.029176 -0.165593 123 100 131
-0.026764 0.047673 0.159933 133 100 121
0.010681 -0.025746 -0.312621 124 100 130
-0.027373 0.026294 0.219334 130 100 124
-0.227942 0.033264 0.161398 131 100 123
0.236619 0.015757 0.146398 129 100 125
0.193983 0.030526 -0.119233 131 100 123
-0.110404 0.074509 -0.159016 136 100 118
0.009505 0.033208 -0.179344 131 100 123
-0.078263 0.015544 0.008244 129 100 125
0.030264 0.250216 -0.257813 159 100 95
0.200080 0.035370 0.039449 132 100 122
0.101098 0.055955 -0.138702 134 100 120
-0.001820 0.001292 -0.140330 127 100 127
-0.067052 0.028324 -0.026325 131 100 123
0.039363 0.022241 0.241213 130 100 124
-0.014783 0.042884 0.186337 132 100 122
0.144634 0.003776 -0.195435 127 100 127
0.094868 0.026401 0.208301 130 100 124
-0.155700 0.009545 -0.136320 128 100 126
-0.101323 -0.333069 0.365841 85 100 169
-0.149616 0.055566 -0.064960 134 100 120
0.032015 0.010470 0.202842 128 100 126
0.226326 0.043195 -0.062971 133 100 121
0.153196 0.078754 -0.063024 137 100 117
0.007588 0.088118 -0.255221 138 100 116
0.126286 0.088033 0.196902 138 100 116
0.069639 -0.007314 0.091329 126 100 128
-0.220436 0.038354 -0.108050 132 100 122
-0.079382 0.009253 -0.110033 128 100 126
0.399793 -0.287052 -0.176735 90 100 164
-0.016401 -0.003988 0.038304 126 100 128
0.069301 0.019709 -0.181813 130 100 124
-0.012912 0.018538 -0.140160 129 100 125
-0.117895 0.024667 -0.217750 130 100 124
-0.420918 -0.086915 0.181332 116 100 138
