ply
format ascii 1.0
element vertex 1190
property float x
property float y
property float z
property uchar red
property uchar green
property uchar blue
end_header
-0.134495 0.046472 0.075866 133 100 121
-0.229805 0.120418 0.096122 142 100 112
-0.149574 0.011714 0.229040 128 100 126
-0.143943 0.034598 -0.206747 131 100 123
-0.056823 0.058574 0.123137 134 100 120
0.181210 0.016701 -0.115577 129 100 125
-0.163161 0.001822 0.266500 127 100 127
0.175546 0.061384 -0.130947 135 100 119
0.054892 -0.651579 -0.397540 44 100 210
0.231033 0.044922 -0.102165 133 100 121
-0.098374 0.019900 -0.249037 130 100 124
0.195637 0.057233 0.203334 134 100 120
-0.084180 0.081261 0.214558 137 100 117
0.069642 0.016107 -0.241164 129 100 125
-0.247161 0.056408 -0.046593 134 100 120
-0.202440 0.104809 -0.118622 140 100 114
-0.328859 0.002597 0.110344 127 100 127
-0.106782 0.095907 -0.135021 139 100 115
-0.072006 -0.008972 -0.130968 126 100 128
0.222214 0.092178 -0.010479 139 100 115
-0.206415 0.023925 0.138176 130 100 124
-0.076450 0.026208 0.184560 130 100 124
-0.381979 0.672619 -0.201587 213 100 41
0.246156 0.023379 0.236133 130 100 124
0.112788 -0.000744 -0.122529 127 100 127
-0.196855 0.012345 0.103043 129 100 125
0.134593 0.014883 0.220228 129 100 125
-0.097876 0.024094 -0.142146 130 100 124
-0.104741 -0.222039 0.473087 99 100 155
0.237862 0.001789 -0.099285 127 100 127
-0.208998 0.037185 0.006907 132 100 122
-0.351649 0.193104 -0.112435 152 100 102
-0.163432 0.071846 -0.251873 136 100 118
0.052138 0.067186 0.112772 136 100 118
-0.076660 0.015036 -0.047009 129 100 125
-0.053146 0.017893 -0.227926 129 100 125
-0.234504 -0.019415 -0.023653 125 100 129
0.291598 -0.360112 -0.218705 81 100 173
-0.235566 0.033811 0.126495 131 100 123
0.191115 0.061363 0.015994 135 100 119
-0.063108 0.039151 0.309611 132 100 122
-0.029217 0.056388 0.223535 134 100 120
0.008408 0.002292 -0.243413 127 100 127
0.144958 0.060096 -0.172902 135 100 119
-0.164321 0.048440 -0.064231 133 100 121
0.121418 0.060238 0.028262 135 100 119
0.242332 -0.008247 -0.164039 126 100 128
-0.207539 -0.008121 0.178563 126 100 128
0.216185 0.016695 -0.139487 129 100 125
-0.285653 -0.018974 -0.155332 125 100 129
-0.174216 0.029368 -0.059163 131 100 123
-0.244254 0.041777 -0.216257 132 100 122
-0.170633 -0.051465 0.105818 120 100 134
-0.123107 0.035908 -0.138072 132 100 122
0.230183 -0.503810 -0.267108 63 100 191
0.061754 0.030359 -0.225385 131 100 123
-0.126225 0.052973 0.224093 134 100 120
0.143531 0.048118 -0.125283 133 100 121
-0.022421 0.020714 -0.308012 130 100 124
-0.156616 -0.019826 -0.110319 124 100 130
-0.220384 0.020235 -0.015682 130 100 124
0.142808 -0.024739 0.007625 124 100 130
0.208424 0.008457 -0.145636 128 100 126
-0.230333 0.102749 0.042701 140 100 114
-0.132372 0.066611 -0.367241 135 100 119
0.112687 0.021212 -0.176710 130 100 124
-0.216511 -0.752804 0.323946 31 100 223
0.130332 0.039153 0.018512 132 100 122
-0.281170 0.106471 -0.115162 141 100 113
-0.040818 0.056045 -0.267480 134 100 120
0.011574 0.028403 -0.192125 131 100 123
-0.237258 0.011616 0.029121 128 100 126
-0.154827 -0.003923 0.263871 126 100 128
0.263965 -0.004477 0.005601 126 100 128
0.083140 0.009407 0.226426 128 100 126
0.075222 0.074135 -0.215667 136 100 118
0.097983 0.001722 0.100487 127 100 127
0.273617 0.026912 0.013262 130 100 124
-0.343133 0.615693 -0.027266 206 100 48
-0.067430 0.058896 0.151802 135 100 119
0.067708 0.029084 -0.165661 131 100 123
-0.206078 -0.037576 0.279068 122 100 132
0.209779 0.135544 0.318759 144 100 110
0.018400 -0.057330 0.217291 120 100 134
0.128656 0.068411 0.129269 136 100 118
-0.178636 0.039190 -0.122410 132 100 122
-0.171501 0.096379 0.244026 139 100 115
-0.324575 0.044590 -0.055197 133 100 121
-0.210699 0.036968 -0.123934 132 100 122
0.084246 0.057402 -0.131930 134 100 120
-0.147127 0.026000 0.063804 130 100 124
0.071223 0.063821 0.077245 135 100 119
0.129029 0.071516 0.143451 136 100 118
-0.171879 -0.010357 0.210221 126 100 128
0.202228 0.005594 -0.136345 128 100 126
-0.187241 0.034915 -0.276980 131 100 123
-0.057435 0.010557 0.210287 128 100 126
-0.056688 0.026674 0.300190 130 100 124
0.128383 -0.006112 0.138747 126 100 128
-0.227221 0.097133 -0.086518 139 100 115
0.022552 0.022929 0.178163 130 100 124
0.166544 0.077979 -0.123095 137 100 117
-0.164890 -0.211341 -0.317804 100 100 154
-0.160997 0.023057 0.231602 130 100 124
0.243413 0.046109 -0.153903 133 100 121
-0.308587 0.081265 -0.251535 137 100 117
0.226291 -0.049185 -0.163864 121 100 133
0.288479 -0.295272 0.204239 89 100 165
-0.048496 0.002948 0.123122 127 100 127
0.240745 0.051040 -0.162872 134 100 120
-0.235417 0.016442 0.206916 129 100 125
-0.092816 0.040921 0.196198 132 100 122
0.210615 0.029697 0.147347 131 100 123
-0.244078 0.036217 -0.217185 132 100 122
-0.308747 0.036930 0.095838 132 100 122
-0.119743 0.058024 -0.247820 134 100 120
-0.160405 0.027564 -0.195080 131 100 123
-0.212652 0.000570 0.059333 127 100 127
-0.052409 0.083235 0.108739 138 100 116
0.118594 0.005431 -0.209034 128 100 126
0.133450 0.026512 -0.211981 130 100 124
-0.103156 -0.016696 0.484527 125 100 129
0.275256 0.023399 -0.041939 130 100 124
0.266181 0.023462 0.236075 130 100 124
0.002289 0.009734 0.284196 128 100 126
-0.132986 -0.011077 -0.170363 126 100 128
0.130261 0.028548 -0.107413 131 100 123
-0.244161 -0.006430 0.124101 126 100 128
-0.042453 0.067194 -0.245219 136 100 118
-0.253424 0.567220 -0.303886 199 100 55
0.165873 0.067827 0.223881 136 100 118
-0.267657 0.034344 0.091064 131 100 123
0.123960 0.050937 -0.202549 133 100 121
-0.267636 -0.002235 0.039759 127 100 127
0.110193 0.006926 0.140882 128 100 126
-0.312352 0.014352 0.084416 129 100 125
0.077854 0.026865 -0.074738 130 100 124
-0.305262 0.320170 0.066115 168 100 86
0.158770 0.048005 -0.122842 133 100 121
0.293079 0.052902 0.124873 134 100 120
0.170690 -0.119150 -0.461046 112 100 142
-0.037103 0.034239 -0.064188 131 100 123
-0.124129 -0.000151 -0.378763 127 100 127
-0.102769 0.086710 0.132851 138 100 116
0.161916 0.092547 -0.047495 139 100 115
-0.323584 0.027119 -0.022092 130 100 124
0.170741 0.007536 0.032453 128 100 126
0.144095 0.049250 -0.265331 133 100 121
-0.010820 -0.006406 0.285399 126 100 128
-0.146290 0.119094 0.234058 142 100 112
-0.231934 0.109549 0.171284 141 100 113
-0.128968 0.052350 -0.092517 134 100 120
-0.060835 0.084734 0.238748 138 100 116
-0.243096 0.073328 -0.334193 136 100 118
-0.060605 0.045549 0.079399 133 100 121
0.094888 0.011374 -0.168319 128 100 126
-0.147198 -0.040312 -0.225392 122 100 132
-0.156974 0.020005 0.120161 130 100 124
-0.326391 0.037415 -0.044512 132 100 122
-0.113107 0.021201 -0.056971 130 100 124
0.116510 0.002805 0.260428 127 100 127
0.372415 -0.557487 -0.028906 56 100 198
0.255565 0.077957 -0.036861 137 100 117
0.085164 0.004548 0.081395 128 100 126
-0.314123 0.105892 -0.172940 141 100 113
-0.125309 0.018866 0.305331 129 100 125
-0.125328 0.026464 0.217209 130 100 124
0.109982 0.074814 -0.216502 137 100 117
-0.237332 -0.681058 0.442455 40 100 214
0.171246 0.018109 -0.156831 129 100 125
0.228061 -0.045126 0.216509 121 100 133
0.040880 -0.047281 0.204464 121 100 133
-0.291925 0.015678 -0.162112 129 100 125
0.036251 -0.024200 -0.118795 124 100 130
-0.267219 -0.008219 -0.151024 126 100 128
-0.208508 0.026426 -0.132548 130 100 124
0.105807 0.106624 -0.155472 141 100 113
0.144758 0.024128 0.015244 130 100 124
0.059669 0.039921 -0.406933 132 100 122
-0.013874 -0.014586 -0.233620 125 100 129
0.272613 0.034801 0.035271 131 100 123
-0.058547 0.026779 -0.185436 130 100 124
0.047001 0.412740 -0.275297 180 100 74
-0.147028 0.050519 0.116787 133 100 121
0.021551 0.044060 0.323586 133 100 121
-0.188801 0.003276 -0.049139 127 100 127
0.227785 0.089582 0.050085 138 100 116
-0.269181 0.010670 -0.073333 128 100 126
0.131968 0.042427 -0.242533 132 100 122
-0.312819 -0.418295 0.170163 74 100 180
-0.200044 0.028515 0.032486 131 100 123
-0.047842 0.029594 -0.269056 131 100 123
0.157447 0.053983 0.074495 134 100 120
-0.340519 -0.002895 0.180387 127 100 127
-0.077300 -0.005369 0.136600 126 100 128
-0.244736 -0.283266 0.430581 91 100 163
-0.130233 -0.012979 -0.136838 125 100 129
0.017836 0.028024 0.214040 131 100 123
0.082035 0.044881 0.101948 133 100 121
-0.229055 0.064011 -0.124548 135 100 119
-0.213693 0.086647 -0.126070 138 100 116
-0.247872 0.032608 0.048923 131 100 123
-0.209804 0.027924 -0.088238 131 100 123
-0.095068 0.000611 0.030478 127 100 127
-0.200670 0.076978 0.348844 137 100 117
0.031060 0.040512 0.089544 132 100 122
0.115999 0.023024 0.031666 130 100 124
-0.111689 0.014142 0.246614 129 100 125
0.202053 0.025432 0.015744 130 100 124
-0.222354 0.002469 -0.016259 127 100 127
-0.199366 0.072030 0.092733 136 100 118
-0.160660 0.010683 0.144169 128 100 126
-0.027198 0.022298 -0.263006 130 100 124
-0.283555 0.001378 -0.058455 127 100 127
0.035524 0.040222 -0.192613 132 100 122
0.139112 -0.004568 0.045451 126 100 128
0.240422 -0.149046 0.298928 108 100 146
0.436460 0.043120 -0.011031 132 100 122
0.128135 0.078681 -0.003286 137 100 117
-0.042399 0.002884 0.026896 127 100 127
-0.174414 0.003397 0.004946 127 100 127
-0.121081 0.058398 0.248931 134 100 120
-0.074896 -0.035270 -0.144391 123 100 131
-0.059305 0.017901 0.189285 129 100 125
0.045996 0.051107 0.180069 134 100 120
-0.006320 0.029251 0.163012 131 100 123
0.105480 0.032572 -0.084579 131 100 123
0.161471 0.031239 -0.103746 131 100 123
-0.172425 0.004544 0.085082 128 100 126
-0.215450 0.002314 -0.077113 127 100 127
0.121102 0.046922 -0.044399 133 100 121
0.005378 -0.025089 -0.201182 124 100 130
0.098263 0.036055 -0.114858 132 100 122
-0.089735 0.019853 0.058452 130 100 124
0.088705 0.047811 -0.138292 133 100 121
-0.016626 0.087949 0.198607 138 100 116
-0.084913 0.014003 0.207781 129 100 125
-0.179976 0.039754 0.007818 132 100 122
-0.145696 0.008772 0.110149 128 100 126
-0.144013 0.027318 -0.172664 130 100 124
0.065178 0.067113 -0.186475 136 100 118
0.073332 -0.000217 0.141091 127 100 127
0.030389 0.035343 -0.086799 132 100 122
-0.101243 0.307871 -0.368280 166 100 88
0.201263 0.087585 0.225802 138 100 116
-0.009044 0.066678 0.213151 136 100 118
0.219087 0.064410 -0.008256 135 100 119
-0.098758 0.049028 -0.057583 133 100 121
-0.156506 0.063064 -0.127181 135 100 119
-0.177418 0.065330 -0.134564 135 100 119
0.205563 0.023963 -0.064832 130 100 124
-0.047751 0.037701 -0.260300 132 100 122
0.088930 0.031874 0.229680 131 100 123
-0.253435 0.039331 0.172704 132 100 122
-0.191048 0.000205 0.306737 127 100 127
-0.196713 0.070578 0.077060 136 100 118
0.063834 0.016704 -0.159218 129 100 125
0.180819 0.029421 0.104890 131 100 123
-0.131039 0.033067 -0.160893 131 100 123
0.217797 -0.361647 -0.489579 81 100 173
-0.250719 -0.068231 -0.084220 118 100 136
0.177924 0.111695 -0.029930 141 100 113
-0.024774 0.070225 -0.162658 136 100 118
-0.099925 -0.064088 0.198425 119 100 135
-0.198350 0.010555 -0.022618 128 100 126
0.077586 0.051037 0.084248 134 100 120
0.187584 0.513502 -0.206979 192 100 62
-0.144555 -0.015926 -0.158263 125 100 129
0.107298 -0.017365 0.133128 125 100 129
0.106011 0.076197 0.034513 137 100 117
0.141723 0.003881 -0.108753 127 100 127
-0.369702 -0.000602 -0.088046 127 100 127
-0.188240 0.023517 0.239383 130 100 124
-0.158530 -0.156496 0.542952 107 100 147
-0.078765 0.055664 0.195155 134 100 120
-0.080463 0.089664 0.258301 138 100 116
0.328402 0.009224 -0.286099 128 100 126
-0.176887 0.058679 -0.011690 134 100 120
-0.066285 0.001386 0.092195 127 100 127
-0.087970 0.049830 0.202872 133 100 121
-0.202997 -0.036165 -0.048874 122 100 132
-0.054578 0.061885 -0.216702 135 100 119
-0.109791 0.080466 -0.001459 137 100 117
-0.102410 0.077617 -0.204938 137 100 117
0.122245 0.049475 -0.094447 133 100 121
-0.063055 0.013973 -0.098647 129 100 125
-0.005314 0.016472 -0.114988 129 100 125
-0.345311 0.013031 0.074657 129 100 125
0.049634 0.021220 0.070803 130 100 124
-0.213113 0.015926 -0.006751 129 100 125
-0.256284 -0.024561 0.110780 124 100 130
0.124889 0.073232 0.199720 136 100 118
-0.180541 -0.010421 -0.155002 126 100 128
-0.128523 -0.003328 0.213662 127 100 127
0.198249 0.043151 0.085755 133 100 121
0.049291 -0.741213 0.482904 32 100 222
0.108222 0.046639 -0.255768 133 100 121
-0.127420 -0.004092 -0.206075 126 100 128
-0.150256 -0.005959 -0.197336 126 100 128
-0.106134 0.058857 0.147745 135 100 119
-0.049395 0.045717 0.030816 133 100 121
-0.169690 0.025495 -0.126024 130 100 124
0.175751 0.048841 -0.104043 133 100 121
-0.014269 0.002858 -0.066306 127 100 127
-0.155333 0.050335 -0.050211 133 100 121
0.199040 0.057761 -0.151226 134 100 120
0.079882 0.025446 -0.225245 130 100 124
-0.062439 0.039083 -0.090059 132 100 122
-0.274089 -0.070104 -0.159472 118 100 136
-0.172990 0.102492 0.016340 140 100 114
0.137163 0.070128 0.107598 136 100 118
-0.127658 0.049155 -0.262584 133 100 121
0.167944 0.027273 -0.161050 130 100 124
-0.160503 0.035351 0.315366 132 100 122
0.250857 0.079797 0.001813 137 100 117
0.175101 0.052130 0.330899 134 100 120
-0.041883 0.317536 0.274144 167 100 87
0.092637 0.060980 0.168246 135 100 119
-0.145521 0.081243 -0.071946 137 100 117
0.158199 0.020147 0.435549 130 100 124
0.049121 -0.004043 0.240390 126 100 128
0.243097 0.042074 -0.024953 132 100 122
0.027350 0.037886 0.301004 132 100 122
0.192668 0.087091 0.108223 138 100 116
0.083011 0.044891 0.091142 133 100 121
0.016868 -0.004068 -0.102336 126 100 128
-0.147359 0.066141 -0.096553 135 100 119
0.119509 0.006473 0.205307 128 100 126
-0.125400 0.047510 -0.186615 133 100 121
0.032487 0.069593 0.186269 136 100 118
0.212787 0.074640 -0.055152 137 100 117
-0.049542 -0.014437 0.139148 125 100 129
0.288661 0.012849 0.124939 129 100 125
0.239659 0.087964 0.014311 138 100 116
-0.212118 -0.000584 -0.291642 127 100 127
0.156190 0.020319 -0.087162 130 100 124
0.225539 0.072127 -0.102115 136 100 118
-0.026565 0.058777 0.334692 134 100 120
-0.132387 0.058181 -0.068311 134 100 120
0.331110 0.051908 0.011826 134 100 120
-0.095481 0.047512 0.300892 133 100 121
-0.180216 0.028461 -0.151788 131 100 123
-0.027110 0.027272 0.272670 130 100 124
0.266693 0.033444 -0.044064 131 100 123
-0.032782 0.093755 -0.203631 139 100 115
0.129365 0.070711 0.198513 136 100 118
-0.149379 0.015125 0.056781 129 100 125
-0.097392 0.063871 -0.207818 135 100 119
0.105957 0.047800 -0.197329 133 100 121
-0.135313 -0.678258 0.472698 41 100 213
-0.172919 0.647151 0.335020 210 100 44
-0.232843 -0.006206 0.050046 126 100 128
0.141254 0.083130 0.302073 138 100 116
-0.139030 0.014013 -0.174972 129 100 125
-0.023642 0.030096 -0.207248 131 100 123
-0.163353 -0.005456 0.069384 126 100 128
0.114077 0.027538 -0.251648 131 100 123
-0.030073 0.028838 0.159377 131 100 123
-0.277025 0.055258 0.158088 134 100 120
0.188816 0.100357 -0.111278 140 100 114
0.119959 0.051172 -0.078728 134 100 120
0.127985 0.024443 0.089605 130 100 124
-0.106393 0.047577 0.171084 133 100 121
0.098478 -0.041330 -0.078706 122 100 132
0.134929 0.056049 -0.057377 134 100 120
-0.213776 0.040754 -0.013705 132 100 122
0.111576 0.079954 -0.118282 137 100 117
-0.192375 0.012334 -0.097458 129 100 125
0.211513 -0.000404 -0.021516 127 100 127
-0.137493 -0.037054 0.174989 122 100 132
-0.257703 0.058006 -0.104027 134 100 120
0.303032 -0.253309 -0.243582 95 100 159
0.229335 0.034786 -0.034955 131 100 123
-0.121472 0.065704 0.167612 135 100 119
-0.043989 0.060599 0.090525 135 100 119
0.059109 0.148766 -0.249559 146 100 108
-0.225395 -0.025179 -0.182397 124 100 130
-0.169616 0.024543 0.195597 130 100 124
-0.014811 0.028850 0.104312 131 100 123
0.034543 0.004303 0.161001 128 100 126
-0.181656 -0.051273 0.009879 120 100 134
-0.221701 0.056916 0.024555 134 100 120
-0.448954 -0.709633 -0.074518 37 100 217
-0.001192 0.065696 -0.221522 135 100 119
-0.248837 0.014131 -0.095418 129 100 125
-0.061208 0.011885 0.224365 129 100 125
0.144684 0.043631 -0.240776 133 100 121
-0.198943 0.034581 0.021124 131 100 123
0.202011 0.029164 -0.028728 131 100 123
0.089990 0.060369 -0.344653 135 100 119
-0.072975 0.107121 -0.197094 141 100 113
0.062746 0.034035 -0.184873 131 100 123
-0.072207 0.089688 -0.269717 138 100 116
-0.403109 -0.435672 -0.244877 71 100 183
0.166812 0.028324 0.010781 131 100 123
-0.151290 0.043492 0.017217 133 100 121
-0.143645 0.048616 -0.172114 133 100 121
0.108931 0.062876 -0.199467 135 100 119
0.009453 0.031029 -0.194646 131 100 123
-0.318355 0.018474 -0.123679 129 100 125
0.182961 0.073027 0.087741 136 100 118
-0.232169 0.032752 0.002482 131 100 123
0.068777 0.049169 0.213973 133 100 121
-0.003225 0.067518 0.171572 136 100 118
-0.033734 -0.035483 0.271799 122 100 132
0.195919 0.044128 -0.168842 133 100 121
-0.205068 0.083202 -0.077655 138 100 116
0.066654 0.106541 -0.103267 141 100 113
0.181059 0.028277 0.059502 131 100 123
0.140119 0.056134 -0.062374 134 100 120
-0.071879 0.000134 -0.031057 127 100 127
-0.202365 0.068210 -0.002080 136 100 118
-0.230009 0.049107 -0.017509 133 100 121
0.122503 0.030404 0.041769 131 100 123
0.157902 0.012243 0.140225 129 100 125
-0.081045 0.040233 0.253688 132 100 122
-0.141411 0.053138 -0.005162 134 100 120
-0.139980 -0.014025 0.261022 125 100 129
0.195323 0.064031 -0.009899 135 100 119
-0.201311 0.031318 0.057218 131 100 123
-0.036358 0.229493 0.400836 156 100 98
-0.150969 0.020808 -0.173568 130 100 124
0.049191 -0.021254 -0.132849 124 100 130
0.200566 0.039504 -0.042822 132 100 122
-0.036356 0.055705 -0.127402 134 100 120
-0.063121 0.016956 0.147491 129 100 125
0.125818 0.054565 -0.049277 134 100 120
-0.125235 -0.023639 -0.310031 124 100 130
-0.122771 -0.004502 -0.266357 126 100 128
0.061265 -0.024166 0.148006 124 100 130
-0.281090 0.018122 -0.075762 129 100 125
-0.188535 0.056056 -0.201127 134 100 120
-0.009237 0.011153 0.287842 128 100 126
0.071020 -0.009722 0.200196 126 100 128
0.176876 0.020839 -0.101567 130 100 124
0.000093 0.000807 0.196536 127 100 127
-0.039735 0.839817 0.284675 234 100 20
-0.110375 0.016892 -0.128833 129 100 125
0.006426 0.104988 -0.269243 140 100 114
-0.330812 -0.270495 -0.141902 93 100 161
0.091236 0.065799 0.059873 135 100 119
0.101975 0.053873 0.028100 134 100 120
-0.167057 -0.027931 -0.076593 123 100 131
-0.188310 0.032553 0.141878 131 100 123
0.116539 0.047681 0.081065 133 100 121
0.192197 0.000225 -0.096380 127 100 127
-0.101601 0.095986 -0.202246 139 100 115
-0.117206 0.025828 -0.108079 130 100 124
0.014624 0.008295 0.149418 128 100 126
0.050186 0.073595 -0.161119 136 100 118
-0.141488 0.022161 0.173257 130 100 124
-0.051932 0.040395 0.227266 132 100 122
0.051191 0.014035 0.225523 129 100 125
-0.404990 0.049585 -0.030447 133 100 121
-0.124118 0.036660 0.090755 132 100 122
0.169353 -0.026089 0.137979 124 100 130
-0.245918 0.045566 0.132654 133 100 121
-0.035844 -0.017328 0.057680 125 100 129
-0.163877 0.048746 0.163035 133 100 121
-0.040838 0.066641 -0.353526 135 100 119
0.139827 0.057880 0.101284 134 100 120
0.140207 0.050356 -0.038346 133 100 121
0.092221 0.065871 0.172309 135 100 119
0.119957 0.017076 -0.129862 129 100 125
0.154885 0.028730 -0.103406 131 100 123
0.098010 0.075411 -0.140440 137 100 117
-0.124092 0.052731 -0.159743 134 100 120
-0.142667 0.044159 0.197960 133 100 121
-0.170727 0.017420 0.194772 129 100 125
0.119002 0.058279 -0.166183 134 100 120
0.171583 0.073649 0.057038 136 100 118
0.263157 -0.068148 -0.256381 118 100 136
-0.168009 0.050240 -0.119198 133 100 121
-0.021314 0.067898 0.014350 136 100 118
-0.256373 0.055429 -0.111523 134 100 120
-0.222314 0.032337 0.110836 131 100 123
-0.099954 0.039637 -0.214331 132 100 122
0.117819 -0.009888 -0.198922 126 100 128
0.254921 0.656663 0.287876 211 100 43
-0.242218 0.021195 0.048502 130 100 124
-0.284066 0.052022 -0.010003 134 100 120
-0.090083 0.017222 -0.146134 129 100 125
0.095703 0.061914 -0.174645 135 100 119
-0.142806 0.037243 -0.128730 132 100 122
-0.091724 0.501852 0.179739 191 100 63
-0.278348 0.032630 -0.151175 131 100 123
-0.067756 -0.036016 -0.179813 122 100 132
-0.159056 0.026169 0.051688 130 100 124
-0.275793 0.087988 0.020795 138 100 116
0.023457 0.007608 0.238912 128 100 126
-0.196357 0.003416 -0.249629 127 100 127
-0.213676 0.058415 0.077784 134 100 120
0.001602 0.058238 -0.147055 134 100 120
-0.188093 -0.075267 -0.270121 117 100 137
-0.221510 0.040151 0.017704 132 100 122
0.114500 0.074757 0.105502 137 100 117
0.142570 0.067451 -0.067030 136 100 118
0.222971 0.053124 -0.024310 134 100 120
0.008233 0.051368 -0.014567 134 100 120
-0.022800 0.049537 0.213920 133 100 121
-0.110751 0.001310 -0.232399 127 100 127
0.374350 -0.141457 0.398881 109 100 145
-0.180592 0.025074 0.042908 130 100 124
0.041470 0.074049 0.250844 136 100 118
0.307190 -0.309462 0.304997 88 100 166
0.124432 0.042333 0.081204 132 100 122
-0.116896 0.000269 0.275807 127 100 127
0.247300 0.071553 0.111279 136 100 118
-0.164434 -0.006318 -0.080180 126 100 128
-0.307450 -0.068910 0.327598 118 100 136
-0.083293 0.069645 0.195609 136 100 118
0.204668 0.102483 -0.185449 140 100 114
0.046504 0.035227 -0.008632 131 100 123
-0.136019 0.045569 0.086903 133 100 121
0.018883 -0.022701 0.070674 124 100 130
-0.186102 0.080164 0.012021 137 100 117
-0.195226 -0.019362 0.058334 125 100 129
0.084245 0.034903 -0.241667 131 100 123
0.001788 0.028700 -0.176279 131 100 123
-0.220130 0.391339 -0.160420 177 100 77
0.166521 0.146997 -0.140159 146 100 108
-0.138644 0.045785 0.095449 133 100 121
0.233815 0.106504 -0.341321 141 100 113
-0.271523 -0.034065 0.111134 123 100 131
0.097156 0.052764 0.131493 134 100 120
0.150168 0.093579 -0.276755 139 100 115
-0.175903 0.007827 0.193491 128 100 126
0.232591 -0.023981 0.266204 124 100 130
0.405227 -0.659673 -0.363409 43 100 211
-0.235184 0.068903 -0.125301 136 100 118
0.175175 0.021382 -0.153800 130 100 124
-0.161830 0.034330 -0.037713 131 100 123
0.008460 0.033883 -0.273970 131 100 123
0.042470 0.044429 -0.220487 133 100 121
-0.088942 0.069688 0.110025 136 100 118
0.086469 0.330620 -0.394593 169 100 85
0.187406 0.136673 -0.251507 144 100 110
-0.058937 0.016583 -0.214460 129 100 125
-0.160066 0.067904 0.209839 136 100 118
-0.286769 0.040525 -0.037479 132 100 122
-0.175626 -0.012065 0.021417 125 100 129
-0.104582 0.009230 0.106495 128 100 126
0.141208 0.087716 0.206848 138 100 116
-0.410791 0.033002 -0.052202 131 100 123
0.015536 0.061997 -0.227696 135 100 119
0.371653 -0.745163 0.049072 32 100 222
0.249820 0.092788 -0.101206 139 100 115
-0.430364 0.252546 0.053758 159 100 95
0.164022 0.092423 -0.073759 139 100 115
-0.034060 -0.008240 -0.145359 126 100 128
0.008753 0.026324 0.315545 130 100 124
0.103340 -0.001703 0.104879 127 100 127
-0.176795 0.108630 0.217899 141 100 113
0.140353 -0.027645 0.146879 123 100 131
-0.001639 0.042213 0.191435 132 100 122
0.393104 -0.098133 0.085550 114 100 140
-0.164151 -0.021051 0.000697 124 100 130
-0.258733 0.017459 -0.005534 129 100 125
-0.102109 0.051991 0.260168 134 100 120
-0.161840 0.035399 0.065221 132 100 122
-0.119567 0.076083 -0.093873 137 100 117
0.131189 0.008068 0.249512 128 100 126
0.125283 0.016981 0.071676 129 100 125
-0.004115 0.088892 0.097072 138 100 116
-0.169454 -0.019785 -0.120669 124 100 130
-0.244127 -0.042932 0.313721 122 100 132
0.014517 0.094769 -0.329328 139 100 115
-0.166589 0.058415 -0.006164 134 100 120
-0.218949 0.074694 -0.064403 137 100 117
0.115146 0.029424 -0.148196 131 100 123
-0.141896 0.045040 0.124586 133 100 121
-0.210650 0.002642 0.058185 127 100 127
-0.203837 0.032456 -0.069814 131 100 123
-0.088618 -0.042194 0.317638 122 100 132
0.229124 0.034197 -0.016054 131 100 123
0.060154 0.055544 0.201252 134 100 120
0.112676 -0.048977 0.546982 121 100 133
-0.017898 0.064446 -0.199857 135 100 119
-0.137072 0.019323 -0.108645 129 100 125
-0.046941 0.001282 0.262154 127 100 127
-0.178943 0.026056 0.182172 130 100 124
0.044771 -0.025333 0.167871 124 100 130
-0.267800 -0.029905 0.081714 123 100 131
0.319785 0.060787 -0.221571 135 100 119
0.236495 0.017980 -0.294648 129 100 125
-0.224253 0.013575 -0.064066 129 100 125
-0.090650 0.024153 0.028422 130 100 124
0.154810 -0.027422 0.179677 124 100 130
0.142882 -0.277823 -0.342799 92 100 162
0.067314 0.026718 0.193665 130 100 124
0.026214 0.052681 -0.209180 134 100 120
-0.154269 0.048542 0.124644 133 100 121
0.187291 0.026298 0.029350 130 100 124
0.036859 0.004620 -0.179513 128 100 126
-0.135787 0.063503 0.018472 135 100 119
0.006543 0.038219 0.054350 132 100 122
0.244330 0.039001 -0.092700 132 100 122
-0.072342 0.040649 0.097807 132 100 122
-0.010906 -0.030770 0.194339 123 100 131
0.068938 0.066243 0.132708 135 100 119
0.070213 0.108457 -0.362304 141 100 113
-0.001604 0.039291 0.123557 132 100 122
-0.037942 0.045449 -0.178347 133 100 121
0.145256 0.068057 -0.210294 136 100 118
-0.138273 0.032806 -0.083275 131 100 123
-0.149503 0.031266 0.045457 131 100 123
0.125435 0.042634 0.150249 132 100 122
0.270668 0.093940 -0.067977 139 100 115
-0.193200 0.049440 -0.147259 133 100 121
-0.318096 0.017573 0.076865 129 100 125
-0.078790 0.011090 -0.135127 128 100 126
0.198811 0.028317 -0.127130 131 100 123
0.367538 0.082841 0.107438 138 100 116
-0.210452 -0.031628 -0.080618 123 100 131
-0.071260 0.012239 0.157667 129 100 125
0.030229 0.038461 0.265370 132 100 122
-0.124918 0.024825 -0.215595 130 100 124
0.226862 0.053320 0.142455 134 100 120
-0.138367 0.051876 -0.265805 134 100 120
-0.157000 0.006759 0.084673 128 100 126
-0.100645 0.064277 -0.174296 135 100 119
-0.236486 0.351983 0.305095 172 100 82
0.150314 0.060451 0.229083 135 100 119
0.385405 -0.383583 -0.079976 78 100 176
-0.282475 -0.004297 -0.341467 126 100 128
0.125751 0.001942 -0.345806 127 100 127
0.113419 0.024022 0.192339 130 100 124
-0.171723 -0.024770 -0.145509 124 100 130
-0.156297 0.409653 0.189108 179 100 75
-0.243376 0.022823 -0.081073 130 100 124
-0.175959 0.010837 0.213952 128 100 126
0.108654 0.023616 0.207620 130 100 124
0.111957 0.088004 -0.029845 138 100 116
-0.031075 0.016563 -0.006961 129 100 125
-0.323431 0.028767 0.142325 131 100 123
0.123687 0.060386 0.189866 135 100 119
0.214392 0.079709 0.177030 137 100 117
0.225056 -0.029623 0.174620 123 100 131
-0.018624 0.007421 -0.198772 128 100 126
-0.334135 -0.142743 -0.160780 109 100 145
0.208304 -0.350490 -0.290693 82 100 172
-0.085355 0.052115 0.237463 134 100 120
-0.390220 -0.143018 -0.213142 109 100 145
0.158774 0.029228 -0.015126 131 100 123
-0.019771 0.039833 -0.030020 132 100 122
-0.188692 0.007027 -0.177653 128 100 126
-0.047164 0.027989 0.088181 131 100 123
-0.184515 -0.598932 0.304520 51 100 203
0.028057 0.071487 0.175852 136 100 118
-0.105133 0.027434 0.247057 130 100 124
0.077799 0.027068 -0.343409 130 100 124
-0.209814 0.065941 -0.106717 135 100 119
0.501115 -0.166789 -0.156854 106 100 148
0.400239 0.072369 -0.056985 136 100 118
0.043594 0.046612 0.266677 133 100 121
-0.218372 0.053457 -0.117971 134 100 120
-0.007717 0.065448 0.189565 135 100 119
0.132855 -0.034040 -0.006556 123 100 131
-0.125532 0.056864 0.227526 134 100 120
0.205904 0.000778 0.105366 127 100 127
0.234167 0.053908 0.083926 134 100 120
-0.076137 0.016753 0.196200 129 100 125
-0.070638 0.035581 -0.134957 132 100 122
-0.035078 0.058648 0.201224 134 100 120
0.005467 0.001091 -0.257841 127 100 127
0.088405 -0.209162 -0.509527 100 100 154
-0.220497 0.064848 -0.096453 135 100 119
-0.166363 0.045086 0.172139 133 100 121
0.193026 0.033876 0.017321 131 100 123
-0.031723 0.065987 0.110148 135 100 119
0.007323 -0.007496 0.201416 126 100 128
0.009239 -0.022457 -0.213100 124 100 130
-0.136099 0.046576 0.118841 133 100 121
-0.004918 0.054240 0.248656 134 100 120
-0.159477 -0.000551 0.066379 127 100 127
-0.246056 0.046156 -0.068001 133 100 121
-0.096264 0.099214 0.291327 140 100 114
-0.180358 -0.002631 -0.020654 127 100 127
-0.250098 0.018415 -0.078536 129 100 125
0.057056 0.046490 0.158131 133 100 121
0.065577 0.038552 0.055825 132 100 122
0.326323 -0.007752 -0.001984 126 100 128
0.000828 -0.002633 0.287568 127 100 127
-0.093132 0.010046 -0.127264 128 100 126
-0.069587 0.038591 -0.109467 132 100 122
-0.049296 0.021725 0.174434 130 100 124
0.009254 0.019357 0.248175 129 100 125
-0.082335 -0.012054 0.079375 125 100 129
0.041696 -0.004300 -0.288475 126 100 128
-0.115897 0.053997 0.286180 134 100 120
0.148792 0.040535 0.028441 132 100 122
-0.113350 0.005007 0.044340 128 100 126
0.207206 0.085367 0.199010 138 100 116
0.089438 0.035936 -0.052966 132 100 122
0.108778 0.025437 -0.018596 130 100 124
-0.152385 0.063800 0.205368 135 100 119
0.169023 0.071958 -0.023500 136 100 118
0.127929 0.055632 -0.127805 134 100 120
-0.237254 0.050188 -0.044774 133 100 121
0.192464 0.041097 0.205032 132 100 122
0.347155 0.061683 -0.023630 135 100 119
0.166538 0.039619 -0.033908 132 100 122
-0.005416 0.032073 0.168332 131 100 123
-0.173405 -0.004944 -0.029404 126 100 128
-0.298133 0.100616 0.165834 140 100 114
0.041438 -0.013195 0.196948 125 100 129
0.115117 0.023327 0.100772 130 100 124
0.022626 0.009413 0.159938 128 100 126
-0.199066 0.062716 0.020301 135 100 119
0.002422 -0.004986 0.015841 126 100 128
-0.139677 0.002345 0.153963 127 100 127
-0.214635 0.045129 -0.229648 133 100 121
0.254470 0.054891 0.019084 134 100 120
0.149377 -0.001022 0.261343 127 100 127
-0.089842 0.037229 -0.181401 132 100 122
0.385186 0.089889 0.084396 138 100 116
0.249061 0.092876 0.081646 139 100 115
-0.152299 0.000918 0.169845 127 100 127
0.154097 0.044984 0.173239 133 100 121
-0.067332 0.034412 0.061827 131 100 123
-0.205214 0.023541 -0.096664 130 100 124
0.104865 -0.024090 0.159471 124 100 130
-0.081579 0.038670 0.202641 132 100 122
0.157189 0.010350 0.177771 128 100 126
-0.127011 -0.044041 -0.052870 121 100 133
-0.374839 0.616293 0.100514 206 100 48
0.236320 0.086557 0.097375 138 100 116
-0.252546 0.001614 0.035369 127 100 127
0.039669 0.021126 0.165718 130 100 124
-0.186873 -0.000116 0.038433 127 100 127
0.025882 0.067172 -0.277115 136 100 118
0.037321 0.038264 0.157416 132 100 122
0.019647 0.019881 0.155749 130 100 124
0.213115 0.045092 -0.114052 133 100 121
0.121116 0.004767 -0.035293 128 100 126
0.041919 0.070013 -0.348699 136 100 118
0.257547 -0.030697 0.058878 123 100 131
0.306854 0.073488 0.195838 136 100 118
0.191197 0.081803 0.019839 137 100 117
-0.190584 0.051527 0.475781 134 100 120
-0.049339 0.006757 -0.031732 128 100 126
-0.187518 0.051013 -0.033527 134 100 120
0.025654 -0.010140 -0.112142 126 100 128
0.244851 0.003415 -0.390817 127 100 127
-0.083936 0.055041 -0.229410 134 100 120
0.194505 0.023530 0.056498 130 100 124
-0.027642 0.067285 0.194907 136 100 118
-0.254485 0.037230 0.038856 132 100 122
0.010803 0.007883 -0.413036 128 100 126
-0.142359 0.027710 0.173653 131 100 123
0.183185 0.039388 0.069597 132 100 122
-0.041900 -0.005463 0.307699 126 100 128
0.475012 -0.469518 0.098489 67 100 187
-0.151384 0.011451 0.074684 128 100 126
0.071306 0.028398 -0.268057 131 100 123
-0.173367 0.052455 -0.030455 134 100 120
-0.139921 0.056655 0.184089 134 100 120
-0.100493 0.002509 0.214935 127 100 127
-0.125225 0.007299 0.106832 128 100 126
0.199468 0.046769 -0.226111 133 100 121
0.004637 0.020590 -0.115770 130 100 124
-0.129433 0.031589 0.091011 131 100 123
-0.156711 0.031434 -0.023130 131 100 123
-0.301102 0.071354 -0.089752 136 100 118
0.049554 0.034308 -0.083229 131 100 123
-0.099750 0.074233 -0.177927 136 100 118
0.041450 0.078446 0.217354 137 100 117
-0.046002 0.089035 0.046853 138 100 116
-0.279731 -0.014271 0.038772 125 100 129
0.010226 0.081915 -0.177834 137 100 117
0.192042 0.030437 0.116905 131 100 123
0.087735 -0.021579 0.287312 124 100 130
0.168347 0.301402 -0.087220 165 100 89
-0.113180 0.054187 0.339862 134 100 120
-0.258947 -0.003212 0.179798 127 100 127
0.003087 0.044298 0.309556 133 100 121
-0.218147 0.061662 -0.078087 135 100 119
-0.171444 0.017490 -0.039419 129 100 125
0.059660 0.011611 0.166539 128 100 126
0.080565 0.028821 -0.152946 131 100 123
0.069341 0.048923 0.215593 133 100 121
0.222928 0.058555 -0.150463 134 100 120
0.074980 0.050297 0.187184 133 100 121
-0.256671 0.268424 -0.212053 161 100 93
0.092347 0.106559 -0.200594 141 100 113
0.193734 0.059941 -0.272382 135 100 119
-0.088166 0.056684 -0.207603 134 100 120
0.116952 0.053184 0.207961 134 100 120
0.076276 0.035321 -0.031688 132 100 122
-0.068839 0.060625 0.212111 135 100 119
-0.118340 -0.016591 0.054066 125 100 129
-0.156311 -0.629223 -0.461481 47 100 207
0.234084 0.042508 0.100249 132 100 122
0.351402 0.035109 0.167191 131 100 123
-0.092752 0.018810 0.114653 129 100 125
0.219415 0.044536 -0.086757 133 100 121
-0.073420 0.053741 -0.194038 134 100 120
0.175501 0.025419 0.095031 130 100 124
-0.034371 0.009701 0.434350 128 100 126
0.021105 0.086576 -0.202733 138 100 116
-0.343286 -0.038452 0.058426 122 100 132
-0.241295 0.044603 -0.064336 133 100 121
-0.109386 0.014202 0.113813 129 100 125
-0.105818 0.032768 0.092760 131 100 123
-0.127827 0.004293 -0.207056 128 100 126
-0.021276 0.005292 -0.234314 128 100 126
-0.134059 0.076452 0.202596 137 100 117
-0.087072 0.029595 -0.204789 131 100 123
-0.325101 0.019077 0.006122 129 100 125
-0.339903 0.033998 -0.155465 131 100 123
0.187886 0.008352 -0.139891 128 100 126
0.158858 0.036876 -0.034705 132 100 122
0.120016 -0.001574 -0.225104 127 100 127
-0.187386 -0.008735 0.142602 126 100 128
-0.121959 0.039491 -0.099827 132 100 122
-0.225764 0.065523 -0.179652 135 100 119
0.171795 0.093793 -0.074299 139 100 115
-0.016584 0.042247 -0.268690 132 100 122
0.217947 -0.041504 0.071295 122 100 132
0.018454 -0.013384 0.106778 125 100 129
-0.258201 -0.013888 0.102703 125 100 129
0.029560 0.050500 -0.044372 133 100 121
0.224109 0.037371 -0.015384 132 100 122
-0.037141 0.027355 -0.208539 130 100 124
0.162393 0.089402 -0.138187 138 100 116
0.067575 -0.075306 -0.567656 117 100 137
-0.187768 -0.005817 0.079022 126 100 128
-0.203253 0.050215 0.070868 133 100 121
-0.316963 0.022974 -0.004104 130 100 124
-0.198001 0.063799 -0.056237 135 100 119
0.066352 0.054436 -0.235874 134 100 120
0.091281 -0.573108 -0.317266 54 100 200
-0.085042 -0.018924 -0.096295 125 100 129
0.209546 0.034813 0.001116 131 100 123
-0.230805 0.037617 0.065306 132 100 122
0.153769 0.061450 -0.057173 135 100 119
-0.147756 0.046575 -0.199744 133 100 121
-0.157009 0.035502 0.234180 132 100 122
-0.223726 0.103154 -0.050417 140 100 114
-0.234379 -0.011676 0.067678 126 100 128
0.091452 0.073280 -0.305811 136 100 118
-0.234091 0.013693 0.065878 129 100 125
-0.134885 -0.374825 0.513421 79 100 175
0.081033 0.006507 0.150722 128 100 126
0.212078 0.018019 0.170679 129 100 125
-0.227329 -0.003265 0.370436 127 100 127
0.146925 0.014830 -0.126701 129 100 125
0.066260 0.021655 -0.218125 130 100 124
-0.130864 0.022443 0.223699 130 100 124
0.073278 -0.001946 -0.080510 127 100 127
-0.209287 0.027030 0.045385 130 100 124
0.163939 0.041467 -0.083312 132 100 122
0.088170 0.050940 -0.262669 133 100 121
0.177212 0.084365 -0.219445 138 100 116
-0.112746 0.072925 -0.019573 136 100 118
-0.072789 0.025427 -0.172699 130 100 124
-0.085398 -0.010966 -0.151189 126 100 128
0.054537 0.071165 -0.270077 136 100 118
0.156674 -0.013540 0.085257 125 100 129
-0.073713 -0.149051 -0.439836 108 100 146
0.207755 0.092964 0.172583 139 100 115
-0.192111 0.057956 0.016205 134 100 120
-0.167635 0.060056 -0.141938 135 100 119
-0.199478 0.041189 0.094324 132 100 122
-0.192436 0.037141 -0.159627 132 100 122
-0.248292 0.071159 -0.154077 136 100 118
0.281696 -0.016580 -0.095730 125 100 129
0.071971 -0.062358 -0.239850 119 100 135
-0.141997 -0.020304 0.019182 124 100 130
-0.088403 -0.021679 -0.217907 124 100 130
-0.078363 0.013152 -0.150837 129 100 125
-0.127362 0.057480 -0.154053 134 100 120
0.209691 0.001436 -0.166936 127 100 127
-0.303684 0.092155 0.034764 139 100 115
-0.105850 0.085054 -0.297530 138 100 116
-0.298000 0.005316 -0.028733 128 100 126
0.160649 0.028166 0.180925 131 100 123
-0.116129 0.022487 0.164081 130 100 124
-0.002211 0.000258 -0.279576 127 100 127
-0.043722 0.065626 -0.145384 135 100 119
0.132138 0.051326 0.105160 134 100 120
0.095598 -0.015375 0.211923 125 100 129
-0.169166 0.013448 -0.252077 129 100 125
-0.044837 0.031798 -0.199756 131 100 123
0.185603 0.004598 -0.043395 128 100 126
-0.207611 0.022202 -0.119743 130 100 124
-0.081524 0.044725 0.119575 133 100 121
-0.088441 0.048098 -0.118229 133 100 121
0.150989 0.045392 -0.048242 133 100 121
0.146769 0.033668 -0.035238 131 100 123
0.215333 0.018282 -0.097117 129 100 125
-0.182251 0.008033 -0.055844 128 100 126
-0.156382 0.043567 0.144030 133 100 121
0.125592 0.000308 0.036855 127 100 127
0.146785 0.014024 0.045661 129 100 125
0.124396 0.048810 -0.163582 133 100 121
-0.042421 -0.011498 0.166922 126 100 128
-0.107052 0.011043 -0.201711 128 100 126
-0.288205 0.088973 -0.027302 138 100 116
0.075778 0.075605 -0.181344 137 100 117
-0.018863 -0.034519 0.169254 123 100 131
0.084130 -0.030487 0.202289 123 100 131
0.098737 0.093087 -0.241049 139 100 115
-0.320228 0.086275 0.021482 138 100 116
-0.204885 0.031093 -0.192213 131 100 123
0.224509 0.768530 0.133558 225 100 29
0.036910 0.027573 -0.149950 131 100 123
0.104852 0.045992 0.252164 133 100 121
0.115578 0.005915 0.191153 128 100 126
0.109869 0.077566 -0.205277 137 100 117
0.169255 0.068053 0.212725 136 100 118
-0.055254 -0.725023 0.327957 35 100 219
0.165521 -0.000171 0.063211 127 100 127
-0.327469 -0.002307 -0.143192 127 100 127
-0.459506 0.048616 -0.073942 133 100 121
0.203570 0.046857 -0.079263 133 100 121
-0.183854 -0.017371 0.096257 125 100 129
-0.286675 0.087373 0.367422 138 100 116
0.076136 0.054168 -0.050596 134 100 120
-0.068461 -0.005874 -0.309157 126 100 128
0.220001 0.007268 0.182024 128 100 126
-0.036282 0.045948 -0.134026 133 100 121
0.192139 0.335924 0.231865 170 100 84
0.181735 0.065278 -0.043163 135 100 119
-0.200847 0.008103 -0.098123 128 100 126
0.112477 0.726529 0.279626 220 100 34
0.246413 0.017263 0.144848 129 100 125
0.204146 0.078471 0.034501 137 100 117
0.198639 0.010949 0.028245 128 100 126
0.018369 0.038126 -0.225439 132 100 122
0.460221 -0.660827 0.235532 43 100 211
-0.181874 0.011721 0.029047 128 100 126
-0.125366 0.042943 0.111430 132 100 122
-0.237414 0.013924 -0.115864 129 100 125
-0.022919 0.092837 0.072405 139 100 115
0.057616 0.028313 -0.188585 131 100 123
0.013620 0.040737 -0.234177 132 100 122
-0.263119 0.015756 -0.051253 129 100 125
0.112028 -0.025667 0.193341 124 100 130
0.095140 0.080935 -0.113134 137 100 117
-0.140575 0.037349 0.219149 132 100 122
0.067293 0.088059 0.007039 138 100 116
-0.124294 0.064420 0.080659 135 100 119
-0.247257 -0.007264 -0.087003 126 100 128
-0.045382 0.051702 -0.216936 134 100 120
0.097002 0.052667 0.050967 134 100 120
0.290820 0.117850 0.001823 142 100 112
-0.250145 0.106023 0.129562 141 100 113
-0.199484 0.021670 0.181710 130 100 124
-0.016085 -0.029239 0.247843 123 100 131
-0.111971 0.025443 -0.197449 130 100 124
-0.197831 0.026529 -0.188775 130 100 124
0.144514 0.044559 -0.082574 133 100 121
0.067227 0.056422 0.168478 134 100 120
-0.057724 0.012840 0.110342 129 100 125
-0.047771 0.083395 0.210002 138 100 116
-0.181014 0.045562 0.265027 133 100 121
0.188059 -0.014255 -0.051950 125 100 129
-0.129881 -0.002565 0.103568 127 100 127
0.045981 -0.422346 -0.370434 73 100 181
-0.216881 0.041259 -0.091328 132 100 122
-0.001899 0.068811 0.299822 136 100 118
0.242981 0.059344 -0.121146 135 100 119
0.253054 0.020541 -0.217722 130 100 124
-0.282403 0.079943 -0.106442 137 100 117
0.230985 0.017143 -0.064325 129 100 125
0.039529 0.018316 0.186979 129 100 125
-0.003889 0.084977 0.252595 138 100 116
-0.102470 0.048923 -0.183556 133 100 121
0.413082 0.036856 0.011401 132 100 122
0.139827 0.035404 -0.248714 132 100 122
0.174570 -0.485927 0.279841 65 100 189
-0.083871 -0.003327 0.225573 127 100 127
-0.236392 -0.012395 0.044424 125 100 129
0.106949 0.032278 -0.095183 131 100 123
-0.193421 0.056593 0.153062 134 100 120
0.194388 0.064733 0.078042 135 100 119
-0.069496 0.045045 0.177653 133 100 121
-0.015284 -0.355020 -0.507517 82 100 172
-0.413033 -0.060733 -0.297006 119 100 135
-0.144523 -0.000319 0.208214 127 100 127
-0.010356 0.013240 0.174892 129 100 125
-0.075056 0.017253 -0.250826 129 100 125
0.165122 0.065082 -0.105489 135 100 119
-0.371897 -0.049785 0.147552 121 100 133
0.135565 0.071193 -0.234057 136 100 118
-0.169536 0.091934 -0.021596 139 100 115
-0.301856 0.025925 0.045841 130 100 124
-0.015990 -0.017347 -0.196119 125 100 129
-0.216540 -0.049832 -0.007455 121 100 133
-0.245908 0.078036 -0.075640 137 100 117
-0.244336 0.034588 -0.089136 131 100 123
0.125362 0.052955 0.173644 134 100 120
0.159895 0.018458 0.159547 129 100 125
0.151460 0.037842 -0.256278 132 100 122
0.182205 0.031840 -0.096669 131 100 123
-0.007103 0.039436 0.232080 132 100 122
-0.033720 0.043930 -0.156476 133 100 121
-0.095393 0.109291 0.481094 141 100 113
0.140477 0.052042 -0.113821 134 100 120
-0.230959 -0.033045 0.107868 123 100 131
0.060314 -0.007505 0.161570 126 100 128
-0.073634 0.061319 -0.202774 135 100 119
0.146775 -0.015468 0.035372 125 100 129
-0.293235 -0.672136 -0.244712 41 100 213
0.008441 0.035093 0.133142 131 100 123
-0.101207 0.039359 0.245266 132 100 122
0.067496 0.001017 -0.171241 127 100 127
-0.118357 0.010924 -0.119891 128 100 126
-0.238052 -0.019504 -0.018426 125 100 129
0.260506 0.047329 0.020037 133 100 121
0.060443 0.025906 -0.214341 130 100 124
0.104401 -0.018691 -0.118615 125 100 129
0.129152 0.042245 -0.116435 132 100 122
0.064705 0.022129 0.297141 130 100 124
0.013035 0.032435 0.181764 131 100 123
0.201276 0.029692 -0.037679 131 100 123
-0.010299 0.003480 -0.214092 127 100 127
-0.425689 -0.169065 -0.022787 105 100 149
0.252084 0.049874 0.061515 133 100 121
0.028840 0.040548 0.177490 132 100 122
0.237602 0.057116 0.013832 134 100 120
-0.030535 0.116226 0.218904 142 100 112
-0.073522 0.096181 0.189981 139 100 115
0.012108 0.013086 -0.203604 129 100 125
0.125356 -0.086191 0.192537 116 100 138
-0.043242 0.026421 -0.135894 130 100 124
0.028658 0.046005 -0.187526 133 100 121
0.181750 0.018137 0.084469 129 100 125
-0.024167 0.039335 -0.172415 132 100 122
0.032710 0.745156 -0.327483 222 100 32
0.325755 0.087856 -0.046406 138 100 116
-0.221065 0.109130 -0.102940 141 100 113
-0.019509 0.033562 0.277344 131 100 123
0.104414 0.066755 0.234397 136 100 118
-0.126751 0.032649 0.091849 131 100 123
0.007634 0.018320 0.199683 129 100 125
-0.090972 0.078046 0.182403 137 100 117
0.114941 0.054092 0.137795 134 100 120
0.020894 0.077525 0.451633 137 100 117
0.269702 -0.459073 0.203128 68 100 186
-0.177350 0.102626 -0.153935 140 100 114
0.242881 0.012263 0.180751 129 100 125
0.358368 -0.217676 -0.305493 99 100 155
0.183278 0.058490 -0.093272 134 100 120
0.042524 0.029947 0.300148 131 100 123
0.135104 -0.014467 -0.148942 125 100 129
0.154039 0.039775 -0.098396 132 100 122
-0.161669 0.022395 -0.126272 130 100 124
-0.114095 0.012311 -0.235366 129 100 125
-0.205201 0.008891 -0.142668 128 100 126
-0.086417 0.071102 -0.258015 136 100 118
-0.060818 0.001009 -0.255016 127 100 127
0.080493 0.096569 -0.078614 139 100 115
0.239435 0.010839 0.154610 128 100 126
-0.087504 -0.004991 0.161235 126 100 128
-0.165758 0.004119 0.125992 128 100 126
0.230261 0.053913 0.210831 134 100 120
0.150303 -0.002077 0.063393 127 100 127
0.007904 -0.017549 0.231376 125 100 129
0.321711 0.175972 0.190271 149 100 105
0.209955 0.015490 -0.142135 129 100 125
0.066669 0.057504 0.032618 134 100 120
0.250081 0.057722 -0.026152 134 100 120
-0.465688 -0.208203 0.181758 100 100 154
0.157421 0.108712 0.082287 141 100 113
-0.219907 -0.017549 0.211050 125 100 129
0.161798 0.000668 -0.359939 127 100 127
0.068504 -0.015623 0.194029 125 100 129
0.260455 0.044989 0.036714 133 100 121
0.011254 -0.015997 0.160231 125 100 129
-0.181259 0.033586 0.221117 131 100 123
-0.252922 0.069019 -0.021670 136 100 118
0.296534 0.070220 0.006686 136 100 118
0.206509 0.045860 -0.314557 133 100 121
-0.107479 0.043291 0.175456 133 100 121
0.317783 0.084358 -0.185148 138 100 116
0.017361 0.054507 -0.108350 134 100 120
0.155635 0.109623 -0.216421 141 100 113
0.108461 0.048142 -0.099374 133 100 121
-0.178671 0.013974 -0.030492 129 100 125
0.090225 0.004204 -0.297893 128 100 126
-0.212946 0.021239 -0.054830 130 100 124
-0.047264 0.036783 0.277117 132 100 122
-0.176321 0.100502 0.070507 140 100 114
-0.033058 0.015708 -0.126159 129 100 125
0.134255 -0.033078 0.145665 123 100 131
-0.103137 0.022596 -0.049822 130 100 124
0.050908 0.068159 0.256766 136 100 118
-0.238087 0.049458 0.066211 133 100 121
0.248454 0.018997 0.155185 129 100 125
-0.177107 0.047664 0.011208 133 100 121
0.020493 0.063688 -0.259232 135 100 119
0.201290 0.067268 0.179090 136 100 118
-0.098855 0.034023 -0.143521 131 100 123
-0.047842 0.069346 0.107924 136 100 118
-0.237694 -0.033031 0.114965 123 100 131
0.188990 0.006997 -0.182674 128 100 126
0.367178 -0.463897 -0.355883 68 100 186
0.148622 0.016898 0.218358 129 100 125
-0.118387 0.232711 0.265461 157 100 97
-0.030119 0.020347 -0.038122 130 100 124
-0.094170 0.057048 0.060812 134 100 120
0.042913 0.045150 0.227102 133 100 121
-0.060097 0.012365 0.073285 129 100 125
0.143376 0.078792 0.017201 137 100 117
-0.158450 0.028203 -0.109156 131 100 123
-0.098611 0.018990 -0.373113 129 100 125
0.208436 0.130025 0.326010 144 100 110
0.100006 0.055228 -0.160331 134 100 120
-0.062499 0.046921 0.236099 133 100 121
-0.214797 0.006206 -0.067039 128 100 126
-0.361900 -0.273477 0.448438 92 100 162
0.153288 0.025453 -0.049450 130 100 124
0.225876 0.054980 0.011812 134 100 120
-0.069181 0.009000 -0.212325 128 100 126
0.093470 0.054513 -0.050670 134 100 120
0.087383 0.067461 -0.251032 136 100 118
-0.191729 0.065384 0.138887 135 100 119
-0.112401 0.036606 -0.052711 132 100 122
0.031680 0.088454 -0.301283 138 100 116
-0.282760 0.029045 0.044163 131 100 123
-0.228841 0.007845 0.090071 128 100 126
-0.147316 -0.014707 0.080262 125 100 129
-0.058988 0.052916 -0.201831 134 100 120
0.117755 0.036700 0.145975 132 100 122
-0.237570 0.011098 -0.052739 128 100 126
-0.177204 -0.006964 -0.004950 126 100 128
-0.154406 0.023623 -0.012638 130 100 124
-0.023010 0.035807 0.142875 132 100 122
-0.167953 0.010972 -0.246075 128 100 126
-0.197976 0.064470 0.011398 135 100 119
0.260208 0.433112 0.169444 182 100 72
-0.209760 0.008575 0.000824 128 100 126
0.179283 0.037053 -0.310230 132 100 122
-0.443600 0.046440 0.105278 133 100 121
0.129709 -0.144075 -0.400426 109 100 145
-0.360896 -0.404177 0.007189 75 100 179
0.042409 0.010142 0.176384 128 100 126
0.014020 0.045571 -0.120740 133 100 121
-0.018016 -0.038336 0.315997 122 100 132
0.043309 0.053243 -0.162346 134 100 120
-0.010138 0.020025 -0.221378 130 100 124
-0.136965 0.034785 0.029406 131 100 123
-0.075318 0.059054 0.146878 135 100 119
0.275097 -0.007705 0.002239 126 100 128
-0.105081 -0.428263 -0.453162 72 100 182
0.092390 0.026961 0.039181 130 100 124
-0.106861 0.020558 0.114964 130 100 124
0.166086 -0.010098 -0.200330 126 100 128
0.126949 0.036795 0.026093 132 100 122
0.087487 0.065156 -0.169471 135 100 119
-0.171607 0.019729 0.013444 130 100 124
0.108874 -0.015465 0.256236 125 100 129
0.130563 0.081620 -0.199160 137 100 117
0.092123 0.006961 0.164810 128 100 126
0.102256 -0.033873 -0.318951 123 100 131
-0.193817 0.046113 -0.107466 133 100 121
0.056207 -0.004972 -0.102649 126 100 128
-0.214049 0.041247 -0.010871 132 100 122
-0.199758 0.045246 0.076277 133 100 121
-0.102381 0.031411 -0.215297 131 100 123
-0.139299 0.022319 0.062931 130 100 124
0.094117 0.053431 -0.066850 134 100 120
-0.198572 0.009954 0.183790 128 100 126
-0.197566 0.131732 -0.122669 144 100 110
-0.083728 0.027724 0.092659 131 100 123
-0.124514 0.069778 -0.174401 136 100 118
-0.132134 0.078431 0.178935 137 100 117
0.123935 0.021586 -0.121818 130 100 124
-0.175006 -0.010039 0.104058 126 100 128
-0.248186 0.021058 -0.180837 130 100 124
-0.322100 0.024442 0.056226 130 100 124
-0.112569 0.042377 -0.111237 132 100 122
0.209308 -0.243350 0.350535 96 100 158
-0.194859 -0.036271 -0.000457 122 100 132
-0.154929 0.029326 -0.052395 131 100 123
0.139678 0.044908 -0.118402 133 100 121
0.182311 0.408106 -0.371333 179 100 75
-0.188382 0.061403 -0.156900 135 100 119
-0.208108 0.081337 -0.108329 137 100 117
0.106384 0.048562 -0.112141 133 100 121
-0.101314 -0.013332 -0.199126 125 100 129
-0.096649 0.062815 0.244108 135 100 119
-0.192072 0.015275 -0.020728 129 100 125
0.267828 0.094374 0.228393 139 100 115
-0.192221 0.028995 0.158757 131 100 123
0.011957 0.017554 0.208923 129 100 125
-0.020767 0.025809 0.228782 130 100 124
-0.123231 -0.006062 -0.021037 126 100 128
