ply
format ascii 1.0
element vertex 1190
property float x
property float y
property float z
property uchar red
property uchar green
property uchar blue
end_header
0.134689 0.010060 -0.095087 128 100 126
0.121286 -0.007891 -0.052587 126 100 128
0.035592 -0.027761 -0.049589 123 100 131
-0.047848 0.014171 0.174755 129 100 125
0.119173 0.087727 -0.093853 138 100 116
-0.077235 -0.009250 -0.378653 126 100 128
-0.106874 0.040031 -0.275110 132 100 122
0.087249 0.021489 0.180388 130 100 124
-0.308317 0.014106 -0.076489 129 100 125
-0.193159 0.055203 -0.163927 134 100 120
0.012773 0.004429 0.293442 128 100 126
0.115272 0.007439 0.174678 128 100 126
0.142701 0.016479 -0.157882 129 100 125
0.002862 0.075546 0.202684 137 100 117
-0.020171 0.812544 0.311157 231 100 23
-0.115059 0.071742 -0.182948 136 100 118
0.099052 0.101502 -0.202047 140 100 114
-0.243241 -0.285249 -0.181250 91 100 163
0.072979 0.032407 0.145081 131 100 123
0.146145 0.058527 0.017524 134 100 120
-0.232037 0.015828 -0.038202 129 100 125
-0.200744 -0.019948 0.117430 124 100 130
0.135454 0.085923 0.063003 138 100 116
0.237458 -0.038539 -0.102144 122 100 132
-0.114465 0.037239 -0.232739 132 100 122
-0.156488 -0.021853 -0.071546 124 100 130
0.061609 0.065883 0.127433 135 100 119
0.067238 0.057391 -0.203699 134 100 120
-0.158374 0.058263 0.143060 134 100 120
-0.091095 0.039535 0.199487 132 100 122
-0.069330 0.050105 0.188110 133 100 121
-0.391601 0.074936 -0.000487 137 100 117
-0.188769 0.000732 0.091421 127 100 127
0.217894 0.032221 0.073434 131 100 123
-0.191713 0.053541 0.114259 134 100 120
-0.048013 0.041846 0.070111 132 100 122
-0.139511 0.116703 0.120426 142 100 112
-0.081072 0.099009 -0.352574 140 100 114
0.157893 -0.018183 0.079235 125 100 129
0.220184 0.067704 -0.047564 136 100 118
0.077538 0.026251 0.196933 130 100 124
0.078829 0.013395 -0.156073 129 100 125
0.049125 0.004872 -0.134756 128 100 126
0.107880 0.025018 -0.142887 130 100 124
-0.101070 0.005838 -0.218593 128 100 126
-0.214893 -0.005794 0.164583 126 100 128
-0.130199 0.015853 0.159829 129 100 125
0.158387 0.077152 -0.116173 137 100 117
0.139462 0.024899 -0.019423 130 100 124
0.288487 -0.046856 -0.238555 121 100 133
-0.157884 -0.000624 -0.124261 127 100 127
0.000533 0.028093 0.028341 131 100 123
-0.273393 0.032392 -0.074580 131 100 123
-0.192093 0.041831 0.067665 132 100 122
-0.021055 0.071346 -0.208567 136 100 118
0.105300 0.028481 -0.253484 131 100 123
0.292624 0.621755 0.300905 206 100 48
-0.198116 0.020750 0.009806 130 100 124
-0.249398 0.012370 -0.033780 129 100 125
-0.144600 0.064497 -0.194382 135 100 119
0.054150 0.041284 -0.171709 132 100 122
-0.130101 0.040050 -0.102001 132 100 122
-0.069314 0.471157 0.177230 187 100 67
-0.340094 0.059710 -0.175386 135 100 119
-0.038092 0.015915 -0.142225 129 100 125
-0.218366 0.020890 0.155251 130 100 124
-0.247817 -0.016807 0.062212 125 100 129
0.028476 0.100655 0.239441 140 100 114
-0.214196 0.034254 -0.239782 131 100 123
-0.191297 0.021780 0.053746 130 100 124
0.085837 -0.009481 -0.183844 126 100 128
-0.136726 -0.095021 -0.299995 115 100 139
-0.204381 -0.001481 0.028945 127 100 127
0.075603 0.052831 0.188062 134 100 120
0.142938 -0.004499 -0.129435 126 100 128
0.199338 0.127621 0.003603 143 100 111
0.012339 0.016782 -0.046930 129 100 125
-0.048662 0.024580 0.217170 130 100 124
-0.117656 0.067001 -0.229927 136 100 118
0.302625 -0.088977 0.347057 116 100 138
-0.142095 -0.027316 0.082083 124 100 130
0.063086 0.017791 0.233705 129 100 125
0.355795 -0.278100 0.245485 92 100 162
0.230503 0.021464 0.052308 130 100 124
-0.210285 0.080862 0.258874 137 100 117
0.239461 0.102924 0.098579 140 100 114
-0.300129 0.030713 -0.090877 131 100 123
-0.267291 -0.032627 0.325959 123 100 131
-0.080443 0.105189 0.207118 140 100 114
0.105952 0.017335 -0.182335 129 100 125
0.001608 0.105788 0.089633 140 100 114
-0.089329 0.047824 0.091694 133 100 121
0.026844 0.013129 0.079734 129 100 125
-0.206081 0.027706 0.041296 131 100 123
-0.201411 -0.014443 0.075314 125 100 129
0.037825 -0.024233 -0.242921 124 100 130
0.049768 0.041717 -0.220405 132 100 122
-0.193540 0.397271 -0.121442 178 100 76
0.186642 0.044170 -0.121276 133 100 121
-0.090111 -0.018702 0.099514 125 100 129
0.214871 0.080706 -0.358020 137 100 117
-0.197334 -0.023994 0.097575 124 100 130
0.078299 0.044943 0.148732 133 100 121
0.089112 0.040089 -0.268659 132 100 122
-0.099934 0.029259 0.196208 131 100 123
0.239288 0.027133 0.213396 130 100 124
0.433219 -0.654574 -0.364882 44 100 210
-0.169821 0.059327 -0.148668 135 100 119
0.147652 0.051935 -0.127763 134 100 120
-0.210600 0.037470 -0.041355 132 100 122
-0.077397 0.023785 -0.287345 130 100 124
0.063082 0.025742 -0.233300 130 100 124
-0.111003 0.015657 0.144674 129 100 125
0.143871 0.302801 -0.352584 166 100 88
0.195759 0.092475 -0.289349 139 100 115
-0.095475 0.045437 -0.188425 133 100 121
-0.149498 0.029121 0.232648 131 100 123
-0.297900 0.014063 -0.018797 129 100 125
-0.196147 0.124828 0.014707 143 100 111
-0.082939 0.013851 0.108454 129 100 125
0.183532 0.084359 0.267772 138 100 116
-0.321905 0.094502 -0.061414 139 100 115
-0.081782 0.038933 -0.273735 132 100 122
0.324896 -0.698886 0.048931 38 100 216
0.248203 0.081789 -0.125776 137 100 117
-0.405934 0.251797 -0.000868 159 100 95
0.108591 0.053828 -0.093048 134 100 120
-0.002360 0.021717 -0.128439 130 100 124
0.055427 0.053249 0.247954 134 100 120
0.112595 -0.016855 0.114506 125 100 129
-0.175115 -0.002079 0.136751 127 100 127
0.107287 -0.007358 0.132355 126 100 128
-0.046013 0.031743 0.166647 131 100 123
0.314716 -0.052051 0.065687 120 100 134
-0.210073 0.069418 -0.027500 136 100 118
-0.321653 0.064258 0.056125 135 100 119
-0.087771 0.043691 0.306707 133 100 121
-0.146017 -0.002653 0.041378 127 100 127
-0.136367 0.035188 -0.162780 131 100 123
0.123947 0.025288 0.301158 130 100 124
0.112575 0.075220 0.077993 137 100 117
-0.016340 0.099150 0.136491 140 100 114
-0.155719 -0.024118 -0.090330 124 100 130
-0.321249 -0.044808 0.310368 121 100 133
0.018103 0.055668 -0.329717 134 100 120
-0.151375 -0.052036 -0.061019 120 100 134
-0.235913 -0.046887 -0.015294 121 100 133
0.145975 0.043162 -0.071025 133 100 121
-0.148391 0.044720 0.083638 133 100 121
-0.191924 -0.007042 0.009095 126 100 128
-0.093622 0.022212 -0.090701 130 100 124
-0.119898 -0.000172 0.316647 127 100 127
0.216101 0.011666 -0.073703 128 100 126
0.093670 0.055777 0.199283 134 100 120
0.116990 -0.019008 0.537530 125 100 129
-0.057907 0.065298 -0.242168 135 100 119
-0.115511 -0.028585 -0.061904 123 100 131
0.043215 0.000866 0.237457 127 100 127
-0.149548 0.129705 0.142619 144 100 110
0.053758 -0.007247 0.138500 126 100 128
-0.273080 0.006485 0.037243 128 100 126
0.299097 0.071745 -0.141848 136 100 118
0.161633 -0.001893 -0.231230 127 100 127
-0.247958 -0.034894 -0.077976 123 100 131
-0.057508 0.023937 0.063232 130 100 124
0.121995 0.065971 0.148339 135 100 119
0.055365 -0.254680 -0.289189 95 100 159
0.023924 0.040514 0.163279 132 100 122
-0.057705 0.046960 -0.193222 133 100 121
-0.207686 0.050838 0.133518 133 100 121
0.226599 0.013768 0.085760 129 100 125
0.057024 0.012928 -0.175879 129 100 125
-0.157554 0.079986 0.008675 137 100 117
-0.036749 0.040065 0.042423 132 100 122
0.191735 0.113862 -0.095952 142 100 112
-0.087257 0.041106 0.097331 132 100 122
-0.040871 0.018412 0.207196 129 100 125
0.095309 0.024987 0.118943 130 100 124
0.041527 0.111693 -0.433184 141 100 113
0.086346 0.063434 0.223575 135 100 119
-0.036484 0.087430 -0.229151 138 100 116
0.112299 0.002098 -0.153219 127 100 127
-0.150352 0.000877 0.000351 127 100 127
-0.171958 0.053132 0.051146 134 100 120
0.084584 0.046274 0.085442 133 100 121
0.318203 0.032148 0.012376 131 100 123
-0.195278 0.027336 -0.108100 130 100 124
-0.320858 0.017249 0.085240 129 100 125
0.015338 -0.026568 -0.138436 124 100 130
0.136858 0.066785 -0.087466 136 100 118
0.400525 -0.030935 0.113859 123 100 131
-0.187128 0.007972 -0.061134 128 100 126
-0.077885 0.061513 0.154877 135 100 119
0.054128 0.047938 0.264774 133 100 121
-0.048703 0.047577 -0.204110 133 100 121
0.230947 0.026852 0.092230 130 100 124
-0.176841 0.066044 -0.188614 135 100 119
-0.163952 0.040962 0.022839 132 100 122
-0.077836 0.027661 -0.165589 131 100 123
-0.286309 0.403798 0.340528 178 100 76
0.142565 0.036706 0.197029 132 100 122
0.365858 -0.341192 -0.078106 83 100 171
-0.251150 -0.054707 -0.301018 120 100 134
0.191796 -0.048880 -0.347575 121 100 133
0.087405 0.000826 0.223341 127 100 127
-0.160051 0.033874 -0.139259 131 100 123
-0.137351 0.383675 0.169342 176 100 78
-0.147599 0.049321 -0.052231 133 100 121
-0.223931 0.000525 0.136785 127 100 127
0.059211 -0.015379 0.193686 125 100 129
0.044792 0.057299 -0.074091 134 100 120
-0.035439 -0.022885 -0.017602 124 100 130
-0.356747 0.046855 0.115970 133 100 121
0.135325 -0.047480 0.203009 121 100 133
0.145833 0.026404 0.138501 130 100 124
0.200076 0.027361 0.183965 130 100 124
-0.042414 0.048493 -0.262658 133 100 121
-0.341985 -0.131246 -0.094507 110 100 144
0.240203 -0.396321 -0.311311 76 100 178
-0.062628 0.049476 0.267690 133 100 121
-0.355982 -0.089017 -0.196413 116 100 138
0.184508 -0.022435 -0.021603 124 100 130
-0.076252 0.030726 0.026448 131 100 123
-0.141280 0.004217 -0.087542 128 100 126
-0.073306 0.063536 0.101064 135 100 119
-0.211979 -0.554457 0.302791 56 100 198
0.020184 0.030388 0.132965 131 100 123
-0.081995 0.063005 0.259140 135 100 119
0.047351 -0.013664 -0.268770 125 100 129
-0.226191 0.064715 -0.060968 135 100 119
0.505107 -0.178483 -0.172185 104 100 150
0.364050 0.020054 -0.025027 130 100 124
0.087059 -0.011863 0.176024 125 100 129
-0.251578 -0.023767 -0.140800 124 100 130
-0.024446 0.057802 0.198832 134 100 120
0.132864 -0.047655 0.000211 121 100 133
-0.154616 0.006875 0.129881 128 100 126
0.179402 0.022546 0.110426 130 100 124
0.230460 0.065308 0.074954 135 100 119
-0.062279 0.034079 0.228781 131 100 123
-0.080622 -0.025030 -0.111165 124 100 130
-0.054979 0.052390 0.197481 134 100 120
0.008205 -0.004995 -0.247980 126 100 128
0.107725 -0.278724 -0.450625 91 100 163
-0.167864 0.028895 -0.097615 131 100 123
-0.152809 0.001428 0.181150 127 100 127
0.220275 -0.028901 0.024377 123 100 131
0.019688 0.053953 0.106712 134 100 120
-0.006746 -0.021267 0.133289 124 100 130
0.040788 -0.048883 -0.211604 121 100 133
-0.157473 -0.019194 0.096839 125 100 129
0.074669 0.031139 0.226950 131 100 123
-0.154849 -0.027962 -0.009301 123 100 131
-0.245302 0.011498 -0.059274 128 100 126
-0.115856 0.105990 0.269053 141 100 113
-0.232544 -0.022984 -0.051632 124 100 130
-0.248280 0.057389 -0.119396 134 100 120
0.025925 0.050220 0.129030 133 100 121
0.143279 -0.024170 0.106530 124 100 130
0.335661 0.040484 0.050564 132 100 122
0.039905 0.022014 0.240190 130 100 124
-0.051643 0.044499 -0.162890 133 100 121
-0.055076 0.035935 -0.111781 132 100 122
-0.117576 -0.045332 0.252717 121 100 133
0.029106 0.032442 0.170041 131 100 123
-0.077893 -0.008209 0.127656 126 100 128
0.044497 0.019179 -0.230375 129 100 125
-0.171365 0.055963 0.226501 134 100 120
0.133505 0.014222 0.102996 129 100 125
-0.110681 0.039589 -0.004839 132 100 122
0.197906 0.076130 0.096272 137 100 117
0.123513 0.025391 -0.071741 130 100 124
0.129456 0.007867 0.008298 128 100 126
-0.127823 0.052027 0.201702 134 100 120
0.145012 0.107733 -0.012655 141 100 113
0.070045 0.074962 -0.061090 137 100 117
-0.203435 0.093647 -0.065816 139 100 115
0.166797 0.004647 0.181401 128 100 126
0.320964 0.119755 -0.054561 142 100 112
0.150823 0.031350 -0.083022 131 100 123
-0.068376 0.085336 0.141774 138 100 116
-0.131664 -0.029580 -0.001744 123 100 131
-0.237925 0.041155 0.154254 132 100 122
-0.011590 0.054989 0.236945 134 100 120
0.135430 0.030604 0.165360 131 100 123
0.090669 0.011835 0.153409 129 100 125
-0.212917 0.049829 0.052178 133 100 121
0.020104 -0.002634 0.077317 127 100 127
-0.133167 0.026285 0.216670 130 100 124
-0.199429 0.071711 -0.179394 136 100 118
0.180161 0.049454 0.003602 133 100 121
0.173095 0.068568 0.236359 136 100 118
-0.166321 0.071405 -0.109747 136 100 118
0.331925 0.105142 0.064417 140 100 114
0.213267 0.022700 0.148681 130 100 124
-0.178467 0.003544 0.174056 127 100 127
0.099424 0.044675 0.178712 133 100 121
-0.113286 -0.011219 0.081551 126 100 128
-0.288123 0.024703 -0.049694 130 100 124
0.066481 0.003196 0.148799 127 100 127
-0.022009 0.021443 0.143530 130 100 124
0.105245 0.020686 0.131923 130 100 124
-0.178516 0.068801 -0.035336 136 100 118
-0.371117 0.566900 0.100676 199 100 55
0.199246 0.080403 0.065796 137 100 117
-0.182032 0.004462 0.089859 128 100 126
0.059681 0.031571 0.128096 131 100 123
-0.221752 0.049278 -0.009200 133 100 121
0.024289 0.071562 -0.282721 136 100 118
-0.002629 0.066235 0.161768 135 100 119
0.048336 0.006606 0.193421 128 100 126
0.227542 0.070363 -0.160250 136 100 118
0.131709 0.043934 -0.110485 133 100 121
0.039515 0.089237 -0.345790 138 100 116
0.249068 -0.059993 0.066807 119 100 135
0.330853 0.050841 0.175508 133 100 121
0.186348 0.049177 0.109312 133 100 121
-0.153448 0.067422 0.498852 136 100 118
-0.003158 0.016365 -0.088305 129 100 125
-0.211260 0.076105 -0.063155 137 100 117
0.039150 0.017423 -0.125582 129 100 125
0.220415 0.058573 -0.397484 134 100 120
-0.107047 0.024394 -0.152731 130 100 124
0.229692 0.003770 -0.008287 127 100 127
-0.046627 0.052800 0.201497 134 100 120
-0.262847 -0.001202 0.019382 127 100 127
-0.058064 0.075854 -0.364080 137 100 117
-0.123291 0.029546 0.141932 131 100 123
0.145655 0.069238 0.054303 136 100 118
0.019640 -0.026414 0.221836 124 100 130
0.475945 -0.458715 0.126393 69 100 185
-0.153427 -0.010079 0.080304 126 100 128
0.116696 0.047992 -0.241197 133 100 121
-0.197418 0.052005 0.029305 134 100 120
-0.088987 0.042412 0.213618 132 100 122
-0.170984 0.066947 0.178045 136 100 118
-0.158368 -0.006405 0.100323 126 100 128
0.210570 -0.018919 -0.162079 125 100 129
0.005583 -0.015343 -0.131784 125 100 129
-0.114500 -0.004535 0.145970 126 100 128
-0.153807 0.060325 -0.048588 135 100 119
-0.301418 0.028681 -0.109641 131 100 123
0.017105 0.017559 -0.020773 129 100 125
-0.162844 -0.008493 -0.173206 126 100 128
-0.018857 0.086424 0.262170 138 100 116
-0.089244 0.092541 0.106105 139 100 115
-0.228096 0.008544 -0.009428 128 100 126
0.026226 0.022963 -0.201445 130 100 124
0.139750 0.061225 0.094719 135 100 119
0.091935 0.036765 0.234460 132 100 122
0.174651 0.329720 -0.075166 169 100 85
-0.192904 0.020399 0.301620 130 100 124
-0.255271 -0.004949 0.129076 126 100 128
0.045842 0.015153 0.256611 129 100 125
-0.183558 0.058921 -0.041901 135 100 119
-0.211404 0.016392 -0.068391 129 100 125
0.045057 0.010509 0.134039 128 100 126
0.106928 -0.013880 -0.150374 125 100 129
0.094093 0.039629 0.197574 132 100 122
0.195778 0.026084 -0.159738 130 100 124
0.112477 0.010721 0.207619 128 100 126
-0.274474 0.245772 -0.210523 158 100 96
0.149961 0.096821 -0.149337 139 100 115
0.213118 0.124421 -0.222893 143 100 111
-0.065388 0.016172 -0.188569 129 100 125
0.072285 0.095542 0.168566 139 100 115
0.099080 0.022734 -0.118811 130 100 124
-0.072012 0.014899 0.286786 129 100 125
-0.135524 -0.032457 0.015116 123 100 131
-0.156099 -0.607498 -0.424955 50 100 204
0.212157 0.083171 0.089316 138 100 116
0.254501 0.022407 0.107605 130 100 124
-0.003855 0.074639 0.114669 137 100 117
0.190426 -0.008102 -0.098165 126 100 128
-0.006402 0.031933 -0.172382 131 100 123
0.168332 0.067814 0.070482 136 100 118
-0.008138 0.087248 0.422198 138 100 116
0.029046 0.065767 -0.148208 135 100 119
-0.343579 -0.027501 0.031891 123 100 131
-0.252701 0.062676 -0.059800 135 100 119
-0.161834 0.007408 0.119046 128 100 126
-0.159245 -0.001798 0.160944 127 100 127
-0.174789 -0.024402 -0.195511 124 100 130
-0.018675 0.001633 -0.244359 127 100 127
-0.124828 0.030939 0.102232 131 100 123
-0.015780 0.036952 -0.188557 132 100 122
-0.292207 0.071702 -0.006620 136 100 118
-0.371453 0.056147 -0.129156 134 100 120
0.180381 0.035158 -0.105149 131 100 123
0.098266 0.013854 -0.008429 129 100 125
0.120433 0.009513 -0.139912 128 100 126
-0.180411 0.050111 0.086735 133 100 121
-0.138353 0.039781 -0.121231 132 100 122
-0.284817 0.039438 -0.060827 132 100 122
0.195932 0.030642 -0.043752 131 100 123
-0.062579 0.062709 -0.200838 135 100 119
0.272989 0.001947 0.039199 127 100 127
0.056279 0.017031 0.138640 129 100 125
-0.284160 0.024041 0.114677 130 100 124
-0.066850 0.021048 -0.077261 130 100 124
0.268834 0.064222 -0.057532 135 100 119
-0.070387 0.052128 -0.153469 134 100 120
0.168967 0.020605 -0.133369 130 100 124
0.070514 -0.079039 -0.545186 117 100 137
-0.152277 0.005965 0.095259 128 100 126
-0.222539 0.021638 0.094186 130 100 124
-0.262982 0.019673 0.002324 130 100 124
-0.221491 0.021270 -0.018906 130 100 124
0.023985 0.039520 -0.187853 132 100 122
0.098119 -0.559625 -0.285448 56 100 198
0.010087 0.044278 -0.112262 133 100 121
0.202349 0.092877 0.064965 139 100 115
-0.236509 -0.003730 -0.019109 127 100 127
0.187144 0.057571 -0.020338 134 100 120
-0.077877 0.082482 -0.172371 138 100 116
-0.137822 0.078141 0.200084 137 100 117
-0.240393 0.050576 -0.096864 133 100 121
-0.137432 0.003950 0.028025 128 100 126
0.067310 -0.010436 -0.289524 126 100 128
-0.225826 -0.000247 0.008257 127 100 127
-0.103484 -0.400975 0.513051 76 100 178
0.110732 0.053961 0.159446 134 100 120
0.138827 0.024161 0.112426 130 100 124
-0.247048 -0.020038 0.383653 124 100 130
0.141191 0.011605 -0.128903 128 100 126
0.059570 -0.029092 -0.213177 123 100 131
-0.131231 0.004037 0.194494 128 100 126
0.026164 0.040447 -0.133616 132 100 122
-0.137551 0.003560 0.037646 127 100 127
0.147837 0.042173 -0.055915 132 100 122
0.071455 0.044438 -0.322207 133 100 121
0.139589 0.141230 -0.127406 145 100 109
-0.099017 0.026567 -0.001903 130 100 124
-0.174812 0.043973 -0.197485 133 100 121
-0.047105 0.046110 -0.177475 133 100 121
0.061053 0.048749 -0.249157 133 100 121
0.134985 -0.013829 0.009880 125 100 129
-0.070760 -0.219308 -0.417548 99 100 155
0.199200 0.021386 0.218948 130 100 124
-0.228667 -0.025332 0.003527 124 100 130
-0.146368 0.023751 -0.130702 130 100 124
-0.180098 0.040042 0.176322 132 100 122
-0.204271 0.056202 -0.180416 134 100 120
-0.257084 0.031244 -0.062561 131 100 123
0.192119 0.034193 -0.059804 131 100 123
0.050836 -0.017672 -0.197681 125 100 129
-0.141285 0.077533 0.014424 137 100 117
-0.049643 0.054174 -0.237320 134 100 120
-0.076685 0.062493 -0.188423 135 100 119
-0.074595 -0.035061 -0.104304 123 100 131
0.184007 -0.054560 -0.154446 120 100 134
-0.287483 0.055619 0.064807 134 100 120
-0.039545 0.094787 -0.211459 139 100 115
-0.249002 0.034710 -0.045210 131 100 123
0.169516 0.046938 0.145496 133 100 121
-0.082368 0.080036 0.135130 137 100 117
0.002632 0.017692 -0.242480 129 100 125
-0.013387 0.051374 -0.195587 134 100 120
0.137500 0.110446 0.114180 141 100 113
0.020143 0.066679 0.195342 136 100 118
-0.094718 0.020507 -0.278622 130 100 124
0.055259 0.067450 -0.173108 136 100 118
0.135072 0.039677 0.028722 132 100 122
-0.129252 0.041707 -0.126238 132 100 122
-0.072810 0.022625 0.124082 130 100 124
-0.212528 0.045071 -0.151569 133 100 121
0.165239 0.036782 -0.023995 132 100 122
0.207326 0.026649 -0.077509 130 100 124
0.170939 0.007300 -0.107388 128 100 126
-0.153431 0.007005 -0.078077 128 100 126
-0.181230 0.001856 0.055661 127 100 127
0.221575 -0.040166 0.074923 122 100 132
0.175368 0.079969 -0.062053 137 100 117
0.076311 -0.004258 -0.082712 126 100 128
-0.069313 0.045259 0.123760 133 100 121
-0.053616 0.042242 -0.182628 132 100 122
-0.230084 0.031151 0.003925 131 100 123
0.081370 0.007753 -0.188145 128 100 126
-0.000449 0.020995 0.225921 130 100 124
0.132822 0.042714 0.154294 132 100 122
0.068994 0.019045 -0.237302 129 100 125
-0.313058 0.031209 0.013763 131 100 123
-0.123251 0.033184 -0.119787 131 100 123
0.265645 0.764137 0.139272 224 100 30
0.049950 0.087575 -0.176795 138 100 116
0.164306 0.032817 0.197690 131 100 123
0.116695 0.059580 0.188318 135 100 119
0.024382 0.046259 -0.119669 133 100 121
0.183527 0.025476 0.134413 130 100 124
-0.090134 -0.717190 0.331441 36 100 218
0.192643 0.045947 0.027223 133 100 121
-0.293781 -0.036149 -0.118177 122 100 132
-0.438179 0.087791 -0.067229 138 100 116
0.112251 0.062136 -0.037365 135 100 119
-0.215848 -0.004842 0.106959 126 100 128
-0.274104 0.111643 0.440407 141 100 113
-0.041157 0.080779 -0.113597 137 100 117
-0.093753 0.023665 -0.310401 130 100 124
0.158758 0.086813 0.190171 138 100 116
0.002196 0.049989 -0.186050 133 100 121
0.224457 0.261692 0.217492 160 100 94
0.221010 0.045356 -0.047970 133 100 121
-0.205986 -0.009809 -0.051431 126 100 128
0.201398 0.725705 0.245449 220 100 34
0.258393 0.076171 0.123785 137 100 117
0.202850 0.003965 0.082988 128 100 126
0.187559 0.077406 0.003239 137 100 117
0.056432 -0.003898 -0.196814 127 100 127
0.401437 -0.644331 0.258392 45 100 209
-0.195572 0.039338 0.064693 132 100 122
-0.195724 -0.010957 0.113243 126 100 128
-0.168374 0.005517 -0.011723 128 100 126
-0.020692 0.030009 0.134034 131 100 123
0.080014 0.041403 -0.224059 132 100 122
0.113773 0.036818 -0.215636 132 100 122
-0.228376 0.017644 0.017646 129 100 125
0.050327 0.060688 0.194443 135 100 119
0.038324 -0.008695 -0.121567 126 100 128
-0.045227 0.088065 0.204485 138 100 116
0.065156 0.034400 -0.067116 131 100 123
-0.037326 0.027750 0.099869 131 100 123
-0.223981 -0.019624 -0.114738 124 100 130
-0.111646 0.004866 -0.206030 128 100 126
0.143538 0.028400 0.009515 131 100 123
0.270680 0.067332 0.019506 136 100 118
-0.229444 0.084649 0.160088 138 100 116
-0.224587 -0.048226 0.133867 121 100 133
-0.042633 0.034630 0.229982 131 100 123
-0.101282 0.070585 -0.192837 136 100 118
-0.163966 0.020817 -0.174111 130 100 124
0.172409 0.113352 -0.052770 141 100 113
0.041726 -0.000946 0.201174 127 100 127
-0.058670 0.020715 0.204701 130 100 124
-0.111523 0.069439 0.113634 136 100 118
-0.207567 -0.014385 0.211764 125 100 129
0.131758 0.023876 -0.066218 130 100 124
-0.182099 -0.020044 0.092994 124 100 130
0.014822 -0.437057 -0.355290 71 100 183
-0.194032 0.082255 -0.053516 137 100 117
0.009055 0.029194 0.254668 131 100 123
0.203863 0.095297 -0.081881 139 100 115
0.256942 0.049651 -0.229247 133 100 121
-0.255411 0.040868 -0.072611 132 100 122
0.244696 0.073021 -0.093701 136 100 118
-0.000261 -0.045309 0.239923 121 100 133
-0.074177 0.074759 0.248276 137 100 117
-0.137301 -0.001430 -0.168224 127 100 127
0.333896 -0.019080 -0.011238 125 100 129
0.158091 -0.007128 -0.239776 126 100 128
0.238678 -0.496056 0.296713 64 100 190
-0.090539 0.057160 0.198738 134 100 120
-0.151455 -0.016454 0.066575 125 100 129
-0.006214 0.069736 -0.109316 136 100 118
-0.179361 -0.017077 0.157540 125 100 129
0.204300 0.067234 0.121072 136 100 118
-0.059016 0.106414 0.130760 141 100 113
0.001926 -0.375921 -0.533066 79 100 175
-0.375153 -0.055107 -0.309826 120 100 134
-0.074238 0.045539 0.197473 133 100 121
0.005914 0.078000 0.206555 137 100 117
-0.061476 -0.017716 -0.223089 125 100 129
0.154711 0.044660 -0.074572 133 100 121
-0.332978 -0.120363 0.110965 112 100 142
0.149067 0.090025 -0.212504 138 100 116
-0.174234 -0.015682 -0.027920 125 100 129
-0.260655 0.047224 0.102285 133 100 121
0.053624 0.067480 -0.273594 136 100 118
-0.177712 0.002928 0.003605 127 100 127
-0.218109 -0.007228 -0.095813 126 100 128
-0.234023 0.042395 -0.119257 132 100 122
0.131073 0.047843 0.183481 133 100 121
0.152205 0.004827 0.159735 128 100 126
0.132481 0.011157 -0.208493 128 100 126
0.116374 0.080159 -0.084986 137 100 117
0.023069 -0.018810 0.192893 125 100 129
-0.055310 0.022760 -0.163870 130 100 124
-0.081568 0.068608 0.437973 136 100 118
0.124140 0.031895 -0.079861 131 100 123
-0.205580 0.027350 0.067117 130 100 124
-0.021757 0.050726 0.132484 133 100 121
-0.009302 0.045903 -0.271970 133 100 121
0.059611 -0.015065 0.088601 125 100 129
-0.243072 -0.638052 -0.258333 46 100 208
-0.045407 0.065639 0.109194 135 100 119
-0.145869 0.015300 0.242288 129 100 125
0.078782 0.006368 -0.152054 128 100 126
-0.158644 0.009266 -0.089050 128 100 126
-0.177202 0.034145 -0.038239 131 100 123
0.199177 0.018378 -0.056881 129 100 125
0.009331 0.061360 -0.220317 135 100 119
0.159659 0.021889 -0.185379 130 100 124
0.154057 0.042761 -0.086613 132 100 122
0.062705 0.042917 0.247572 132 100 122
0.012182 0.042254 0.115094 132 100 122
0.203800 0.042068 -0.050383 132 100 122
-0.022375 0.064011 -0.183413 135 100 119
-0.359095 -0.204163 0.016414 101 100 153
0.157759 0.052915 -0.028595 134 100 120
0.035597 0.077015 0.239053 137 100 117
0.174928 0.090664 -0.005306 139 100 115
-0.009240 0.041108 0.184739 132 100 122
-0.019855 0.033456 0.215049 131 100 123
0.018203 -0.036336 -0.218760 122 100 132
0.136975 0.006237 0.181259 128 100 126
-0.016352 0.090694 -0.142266 139 100 115
-0.014300 0.033834 -0.205763 131 100 123
0.100166 0.018478 0.033290 129 100 125
-0.057280 0.061806 -0.193100 135 100 119
0.040055 0.717770 -0.321315 219 100 35
0.299974 0.072861 -0.068264 136 100 118
-0.190866 0.067105 -0.098936 136 100 118
-0.049606 0.001362 0.283383 127 100 127
0.088229 -0.009185 0.233204 126 100 128
-0.095979 0.027991 0.026380 131 100 123
0.040270 0.027929 0.232739 131 100 123
-0.030482 0.031587 0.131540 131 100 123
0.093510 0.045198 0.193880 133 100 121
0.054255 0.000568 0.438861 127 100 127
0.261268 -0.418022 0.173829 74 100 180
-0.181586 0.042033 -0.104671 132 100 122
0.205845 0.011696 0.207799 128 100 126
0.367319 -0.090821 -0.265850 115 100 139
0.188495 0.024524 -0.052239 130 100 124
0.067755 -0.026518 0.287959 124 100 130
0.172626 0.044864 -0.108228 133 100 121
0.111161 0.043378 -0.112927 133 100 121
-0.209367 0.043600 -0.160717 133 100 121
-0.058661 0.041722 -0.178773 132 100 122
-0.200489 0.020661 -0.096464 130 100 124
-0.068448 0.069273 -0.281061 136 100 118
-0.078313 0.037514 -0.270096 132 100 122
0.069077 -0.009174 -0.098441 126 100 128
0.188859 -0.019458 0.165755 125 100 129
-0.072361 -0.056095 0.131405 120 100 134
-0.197401 0.059328 0.089566 135 100 119
0.212216 0.029127 0.165254 131 100 123
0.203303 0.018807 0.059143 129 100 125
0.001973 0.024188 0.195060 130 100 124
0.326382 0.154835 0.206179 147 100 107
0.184031 -0.006478 -0.182524 126 100 128
0.048681 0.075079 0.075762 137 100 117
0.288312 0.028048 -0.079959 131 100 123
-0.445898 -0.155132 0.219364 107 100 147
0.178514 0.089657 0.013311 138 100 116
-0.176871 0.025413 0.198693 130 100 124
0.139970 -0.025299 -0.360263 124 100 130
0.112895 -0.038483 0.172027 122 100 132
0.245900 0.083648 0.089208 138 100 116
-0.010701 0.023722 0.188535 130 100 124
-0.165773 0.017322 0.206012 129 100 125
-0.218435 -0.022372 -0.040180 124 100 130
0.276769 0.060939 -0.007254 135 100 119
0.191857 0.077943 -0.304581 137 100 117
-0.072965 0.079307 0.081668 137 100 117
0.387659 0.094520 -0.164842 139 100 115
0.043634 -0.029475 -0.151743 123 100 131
0.187378 0.057529 -0.239650 134 100 120
0.117837 -0.016937 -0.057305 125 100 129
-0.203977 -0.004445 -0.005583 126 100 128
0.105581 0.069777 -0.228181 136 100 118
-0.164276 -0.002822 -0.109011 127 100 127
-0.063790 0.025460 0.213482 130 100 124
-0.152538 0.030771 0.007428 131 100 123
-0.115421 -0.021988 -0.174036 124 100 130
0.176382 0.009206 0.123263 128 100 126
-0.068430 0.048583 0.005740 133 100 121
0.088168 0.022713 0.284590 130 100 124
-0.224387 0.038392 0.031076 132 100 122
0.233944 -0.010388 0.121902 126 100 128
-0.145402 0.060029 0.039404 135 100 119
0.074770 0.060342 -0.229838 135 100 119
0.203618 0.058464 0.183260 134 100 120
-0.032765 0.076260 -0.139556 137 100 117
-0.030218 0.046912 0.183712 133 100 121
-0.166742 0.012543 0.091680 129 100 125
0.120338 0.019131 -0.088799 129 100 125
0.327772 -0.432821 -0.312110 72 100 182
0.132680 0.081237 0.199408 137 100 117
-0.145558 0.254645 0.229137 159 100 95
-0.093750 0.035830 -0.102290 132 100 122
-0.113349 -0.025937 0.018082 124 100 130
0.088559 0.024468 0.202679 130 100 124
-0.146194 0.046373 0.097924 133 100 121
0.194608 0.050714 -0.038162 133 100 121
-0.078939 0.029560 -0.110107 131 100 123
-0.134389 -0.002505 -0.326806 127 100 127
0.210220 0.130961 0.385243 144 100 110
0.127449 0.027207 -0.217886 130 100 124
-0.037536 0.030311 0.202524 131 100 123
-0.235225 0.021845 -0.043162 130 100 124
-0.261771 -0.303317 0.420319 88 100 166
0.205315 0.002969 -0.070969 127 100 127
0.161700 0.064955 0.067635 135 100 119
-0.111599 0.067439 -0.170756 136 100 118
0.071375 -0.008563 0.001404 126 100 128
0.029361 0.002454 -0.256358 127 100 127
-0.209509 0.074354 0.147221 136 100 118
-0.104429 -0.022974 0.020285 124 100 130
-0.051043 0.052621 -0.236331 134 100 120
-0.243190 0.029543 0.011386 131 100 123
-0.245545 -0.011745 0.080672 126 100 128
-0.145540 0.007121 0.075594 128 100 126
-0.024719 0.025840 -0.200976 130 100 124
0.110957 0.026073 0.177162 130 100 124
-0.186816 0.065630 -0.032904 135 100 119
-0.179594 -0.003338 -0.070739 127 100 127
-0.164156 0.056681 -0.031634 134 100 120
0.001048 0.041925 0.115611 132 100 122
-0.135049 0.054053 -0.232474 134 100 120
-0.183655 0.037325 0.006647 132 100 122
0.151604 0.386009 0.075087 176 100 78
-0.167926 0.001824 -0.065931 127 100 127
0.054002 0.044251 -0.224003 133 100 121
-0.452052 0.055833 0.082274 134 100 120
0.164983 -0.100250 -0.421486 114 100 140
-0.324176 -0.424391 -0.000440 73 100 181
0.056241 0.005084 0.205229 128 100 126
0.003687 0.005579 -0.105139 128 100 126
-0.018538 -0.042713 0.296425 122 100 132
0.027716 0.050462 -0.233639 133 100 121
-0.016861 0.012541 -0.207327 129 100 125
-0.148096 0.042182 0.111743 132 100 122
-0.002876 0.014920 0.182823 129 100 125
0.315623 0.080343 -0.002003 137 100 117
-0.059035 -0.420504 -0.356063 73 100 181
0.147538 0.019388 0.001024 129 100 125
-0.074212 -0.006248 0.151204 126 100 128
0.117605 0.054293 -0.158398 134 100 120
0.096803 -0.010002 0.067752 126 100 128
0.081719 0.064510 -0.259099 135 100 119
-0.145010 0.005740 0.085483 128 100 126
0.105670 -0.013906 0.235442 125 100 129
0.145508 -0.000104 -0.174516 127 100 127
0.157621 0.021930 0.149698 130 100 124
0.095035 0.004674 -0.340446 128 100 126
-0.261434 0.025274 -0.137582 130 100 124
0.104735 -0.008482 -0.158796 126 100 128
-0.211158 -0.042770 -0.138355 122 100 132
-0.146748 -0.002734 0.084693 127 100 127
-0.079113 0.052891 -0.276060 134 100 120
-0.124737 0.028766 0.045344 131 100 123
0.000596 0.063498 -0.052444 135 100 119
-0.166432 -0.007806 0.166253 126 100 128
-0.169670 0.045541 -0.164807 133 100 121
-0.075614 0.030143 0.079232 131 100 123
-0.178905 0.017173 -0.076784 129 100 125
-0.060029 0.041979 0.184681 132 100 122
0.193643 -0.013896 -0.112301 125 100 129
-0.139270 0.006918 -0.011428 128 100 126
-0.231657 0.053644 -0.155766 134 100 120
-0.310003 0.059089 0.038501 135 100 119
-0.198409 0.007458 -0.128016 128 100 126
0.202105 -0.175014 0.368540 105 100 149
-0.181470 0.013550 0.000908 129 100 125
-0.142189 0.053206 -0.071365 134 100 120
0.138064 0.035605 -0.108800 132 100 122
0.160895 0.388117 -0.313025 176 100 78
-0.197146 -0.025719 -0.058777 124 100 130
-0.209576 0.073059 -0.055852 136 100 118
0.171338 0.082776 -0.140452 138 100 116
-0.119513 0.079900 -0.167679 137 100 117
-0.099664 -0.031413 0.228802 123 100 131
-0.211107 -0.026334 0.003273 124 100 130
0.207216 0.073369 0.218078 136 100 118
-0.201032 0.003158 0.069671 127 100 127
0.007840 0.010122 0.197441 128 100 126
0.010180 0.036707 0.232430 132 100 122
-0.070163 0.022292 -0.032011 130 100 124
-0.359269 0.015420 -0.107362 129 100 125
0.134334 0.012625 0.256189 129 100 125
0.196454 0.035068 -0.008590 131 100 123
-0.156580 -0.029139 -0.115226 123 100 131
0.171501 0.037181 -0.047094 132 100 122
-0.252992 -0.018593 -0.055108 125 100 129
0.029818 0.076559 0.173376 137 100 117
-0.225481 0.025923 -0.161203 130 100 124
-0.212857 0.043144 -0.061021 133 100 121
-0.034052 0.029463 -0.104194 131 100 123
0.125285 0.066482 -0.184599 135 100 119
-0.217344 0.764918 -0.184194 225 100 29
0.051298 0.032318 0.115711 131 100 123
-0.129455 -0.009124 0.051194 126 100 128
0.094012 0.067636 -0.108412 136 100 118
-0.171217 0.009940 -0.144771 128 100 126
-0.169480 0.055808 0.136969 134 100 120
-0.161591 0.054204 -0.183573 134 100 120
-0.222507 0.018137 -0.202525 129 100 125
0.116570 0.023130 0.135330 130 100 124
-0.090367 0.046432 0.211500 133 100 121
-0.337902 0.035429 0.091541 132 100 122
-0.241875 0.017783 0.028191 129 100 125
-0.010249 0.111615 -0.176326 141 100 113
-0.161847 0.059901 -0.039777 135 100 119
0.126681 0.038416 0.135370 132 100 122
0.104271 -0.008808 0.061527 126 100 128
-0.262176 0.047091 -0.085731 133 100 121
0.176607 0.073045 -0.150844 136 100 118
0.152993 0.003490 0.146712 127 100 127
0.073923 0.078736 0.017536 137 100 117
0.212560 0.023639 0.023966 130 100 124
-0.157547 -0.009124 -0.202732 126 100 128
0.130472 0.096445 -0.191242 139 100 115
-0.237500 0.005234 -0.093909 128 100 126
-0.164315 0.079661 0.057701 137 100 117
-0.143935 0.125412 -0.294933 143 100 111
0.011486 0.024927 -0.127882 130 100 124
-0.181114 0.099907 -0.014653 140 100 114
-0.034282 0.019870 0.211173 130 100 124
0.419205 -0.326220 0.061692 85 100 169
0.062224 0.026251 0.175342 130 100 124
-0.205152 0.022618 0.145534 130 100 124
-0.215028 0.104065 -0.147443 140 100 114
-0.020293 0.062076 -0.243357 135 100 119
0.152894 0.003187 0.029731 127 100 127
0.006690 0.085834 -0.202446 138 100 116
0.082876 0.034707 0.252131 131 100 123
0.099881 -0.315903 0.516021 87 100 167
0.191640 0.060970 0.083134 135 100 119
-0.089756 0.056928 0.228766 134 100 120
-0.118653 0.032208 -0.437019 131 100 123
0.136337 0.076769 0.092398 137 100 117
-0.222455 0.043035 0.097147 132 100 122
-0.430455 -0.021559 0.169967 124 100 130
0.354589 -0.446021 0.022796 70 100 184
0.184747 0.046726 0.139654 133 100 121
-0.071226 0.046725 0.075810 133 100 121
0.066177 0.075716 -0.212727 137 100 117
-0.019192 0.023312 0.291183 130 100 124
-0.159853 0.160496 -0.394894 147 100 107
-0.114235 -0.018347 -0.178384 125 100 129
0.122807 -0.005723 -0.001777 126 100 128
0.122709 0.055329 0.105801 134 100 120
-0.127772 0.016102 -0.217845 129 100 125
0.352812 -0.541497 0.274188 58 100 196
-0.150213 0.001535 0.066299 127 100 127
0.214045 0.016980 0.138489 129 100 125
0.015775 0.028811 -0.223774 131 100 123
0.210313 0.044807 0.018369 133 100 121
-0.047980 0.005621 0.151761 128 100 126
-0.145703 0.000417 -0.204719 127 100 127
-0.199867 0.004600 -0.101611 128 100 126
0.108750 0.045349 0.076865 133 100 121
-0.112706 0.024476 -0.177787 130 100 124
-0.000478 0.072255 -0.165273 136 100 118
0.457577 -0.031264 -0.030958 123 100 131
-0.160643 0.021348 0.012462 130 100 124
-0.136930 0.052534 0.113056 134 100 120
-0.113430 0.042573 0.057564 132 100 122
-0.133337 0.094695 -0.203271 139 100 115
0.225830 0.021414 0.010059 130 100 124
0.056905 0.064534 -0.171603 135 100 119
-0.091911 0.032617 -0.195664 131 100 123
-0.166749 0.005790 -0.121396 128 100 126
-0.199581 0.056267 0.140111 134 100 120
-0.235635 0.010956 0.052146 128 100 126
-0.104635 0.032801 0.227108 131 100 123
-0.146874 0.099356 -0.346029 140 100 114
0.030535 0.107936 -0.133763 141 100 113
0.090692 0.058522 -0.114126 134 100 120
-0.220811 0.037661 0.119182 132 100 122
-0.227937 0.011372 -0.094440 128 100 126
0.095636 0.011192 0.179323 128 100 126
-0.218617 0.035938 0.134905 132 100 122
-0.173044 -0.034736 0.154564 123 100 131
-0.161814 -0.007231 -0.110275 126 100 128
0.333227 0.022570 -0.357411 130 100 124
0.100459 0.106782 -0.245391 141 100 113
-0.170372 0.074157 0.110331 136 100 118
-0.013795 0.050827 0.164054 133 100 121
0.193757 0.051308 -0.047961 134 100 120
0.327659 -0.107568 0.077442 113 100 141
0.406896 -0.063934 -0.223878 119 100 135
0.274518 0.002966 -0.227611 127 100 127
0.150815 0.060592 -0.050192 135 100 119
-0.073453 0.009644 -0.248170 128 100 126
-0.302419 0.051343 0.147677 134 100 120
-0.169823 0.045967 -0.203804 133 100 121
-0.111857 0.051219 -0.224285 134 100 120
0.267403 0.021245 0.015035 130 100 124
0.017167 0.009591 0.249705 128 100 126
-0.125543 0.024958 0.233362 130 100 124
-0.164391 0.014118 0.124194 129 100 125
0.327335 0.106781 -0.064840 141 100 113
-0.168963 0.032175 -0.172274 131 100 123
-0.029540 0.006240 -0.215543 128 100 126
0.183059 0.066229 -0.243895 135 100 119
0.158920 0.153156 0.105211 147 100 107
-0.189274 0.043675 -0.107700 133 100 121
0.070261 0.048844 -0.260873 133 100 121
-0.041336 0.056865 0.269615 134 100 120
0.220312 -0.359323 0.436386 81 100 173
0.032548 -0.022329 0.011018 124 100 130
-0.220489 0.015706 0.161813 129 100 125
-0.099580 0.020740 0.043328 130 100 124
-0.201694 0.052970 0.228172 134 100 120
-0.294041 0.031789 -0.045237 131 100 123
-0.014723 0.061996 0.260847 135 100 119
0.167751 0.043934 -0.082599 133 100 121
-0.259477 0.021714 0.218873 130 100 124
0.142901 0.010957 0.156313 128 100 126
0.181312 0.032712 -0.012762 131 100 123
0.347729 0.083663 -0.276020 138 100 116
-0.221686 0.029338 0.029782 131 100 123
0.481217 -0.604298 -0.171157 50 100 204
0.033918 0.014272 0.159924 129 100 125
-0.172796 0.048109 0.054702 133 100 121
-0.147202 0.049463 -0.145082 133 100 121
0.053693 0.050580 0.260055 133 100 121
-0.009341 0.005745 0.223038 128 100 126
0.270038 0.261256 -0.177735 160 100 94
0.186288 0.016103 0.053364 129 100 125
0.103497 0.045074 0.179441 133 100 121
0.330191 0.246485 -0.021067 158 100 96
0.159643 0.007141 0.015909 128 100 126
0.173324 0.030492 -0.004064 131 100 123
-0.181695 0.078941 -0.149394 137 100 117
0.238381 0.059422 -0.004247 135 100 119
0.025286 0.033853 0.265551 131 100 123
0.169872 -0.002821 -0.057690 127 100 127
0.108059 0.000433 0.244489 127 100 127
0.283313 0.077321 0.125211 137 100 117
0.234891 0.005509 -0.046603 128 100 126
0.063579 0.002047 0.015678 127 100 127
0.123535 0.005972 -0.112373 128 100 126
0.157723 0.003565 -0.130614 127 100 127
-0.036400 0.091855 0.228101 139 100 115
-0.177193 0.065082 -0.103285 135 100 119
-0.230507 0.003269 -0.062228 127 100 127
0.125553 -0.002655 0.293608 127 100 127
0.231982 0.028219 -0.163781 131 100 123
-0.162551 0.040885 0.252673 132 100 122
-0.215035 -0.017137 -0.071867 125 100 129
-0.161877 0.084641 -0.011226 138 100 116
0.110317 -0.032120 0.290965 123 100 131
0.203776 -0.004923 0.075417 126 100 128
0.045549 0.025543 0.189611 130 100 124
-0.021801 0.033518 -0.155109 131 100 123
-0.052104 0.078059 -0.140722 137 100 117
-0.211535 0.002231 0.234737 127 100 127
0.122060 0.030730 -0.220106 131 100 123
-0.221307 0.043646 0.048043 133 100 121
-0.162841 0.013605 0.124918 129 100 125
0.228830 0.070099 0.093166 136 100 118
-0.263239 -0.013755 -0.117627 125 100 129
0.011844 0.092337 0.234058 139 100 115
0.193251 0.088220 -0.045148 138 100 116
-0.245487 -0.370722 -0.330361 80 100 174
0.028808 0.071625 -0.292360 136 100 118
0.015270 -0.088653 0.377255 116 100 138
0.158642 0.068561 -0.019199 136 100 118
-0.283256 0.023657 -0.128839 130 100 124
-0.100186 -0.017307 -0.093624 125 100 129
-0.068057 0.033899 0.297143 131 100 123
0.140937 0.025593 0.128359 130 100 124
-0.231823 0.006592 -0.093344 128 100 126
-0.074082 0.019453 -0.132828 129 100 125
0.014087 -0.103946 0.408324 114 100 140
0.064584 0.015105 0.248788 129 100 125
0.073129 0.058014 0.169827 134 100 120
-0.161671 0.013690 0.072368 129 100 125
-0.259855 -0.010716 0.225805 126 100 128
-0.248429 0.043869 0.006713 133 100 121
-0.061310 -0.045406 0.202609 121 100 133
-0.201952 0.037701 0.142189 132 100 122
0.105521 0.032713 -0.367596 131 100 123
0.244767 0.693744 -0.141867 215 100 39
-0.079813 0.100493 0.220887 140 100 114
0.205722 0.058034 0.033848 134 100 120
0.083200 0.037352 -0.173197 132 100 122
0.200880 0.176063 -0.288390 149 100 105
0.160439 0.052509 -0.030969 134 100 120
-0.050237 0.016581 0.122063 129 100 125
-0.337005 -0.302961 -0.401417 88 100 166
-0.070007 0.029906 0.292468 131 100 123
-0.087002 0.043386 0.038924 133 100 121
0.210334 0.066746 0.212956 136 100 118
-0.183719 0.014380 -0.046813 129 100 125
0.205804 0.398035 0.313273 178 100 76
-0.185884 0.031898 -0.085130 131 100 123
-0.262049 0.024295 0.141839 130 100 124
0.202950 0.020247 0.079117 130 100 124
0.081490 0.073524 -0.151191 136 100 118
0.258000 0.043637 0.208198 133 100 121
-0.188949 0.087029 -0.197468 138 100 116
0.286401 -0.653911 0.100607 44 100 210
0.158507 0.045682 0.138963 133 100 121
0.114733 -0.007325 0.285199 126 100 128
-0.181456 0.061092 -0.026365 135 100 119
-0.018104 0.060384 0.284323 135 100 119
0.005268 0.021768 0.184507 130 100 124
0.012281 0.021457 -0.196620 130 100 124
0.487580 -0.199412 0.059343 102 100 152
-0.073060 0.080843 -0.186282 137 100 117
0.336155 0.509770 0.173426 192 100 62
-0.181045 -0.043692 0.084697 121 100 133
-0.049089 0.012577 -0.178855 129 100 125
-0.156519 0.061597 -0.208982 135 100 119
0.096802 0.012505 -0.065350 129 100 125
0.192596 -0.006899 -0.285394 126 100 128
0.059621 0.035639 -0.296362 132 100 122
0.230708 0.033953 0.016662 131 100 123
-0.208019 0.026134 -0.159450 130 100 124
0.188190 0.074202 -0.010552 136 100 118
0.095110 0.009760 -0.228227 128 100 126
0.045886 -0.032023 -0.268867 123 100 131
-0.201280 -0.011794 -0.115350 125 100 129
-0.150238 0.010144 0.163871 128 100 126
-0.136472 0.060322 0.128589 135 100 119
-0.443850 -0.075295 -0.232111 117 100 137
-0.021020 0.106961 -0.298910 141 100 113
0.200516 0.063502 0.008884 135 100 119
0.082469 0.022511 0.190649 130 100 124
-0.097283 -0.031728 -0.085382 123 100 131
-0.173047 0.081987 0.263548 137 100 117
0.193593 0.008797 -0.000762 128 100 126
-0.115048 0.055038 0.140402 134 100 120
0.051864 0.064342 -0.183397 135 100 119
-0.041626 0.006539 -0.097441 128 100 126
0.175320 0.023301 -0.077174 130 100 124
-0.179094 0.050457 0.070697 133 100 121
-0.144946 -0.009687 -0.299066 126 100 128
0.149295 0.053272 -0.060822 134 100 120
-0.227265 0.021120 -0.102048 130 100 124
0.160922 0.069832 0.021809 136 100 118
-0.017449 0.100125 0.229044 140 100 114
0.195255 0.026790 0.091397 130 100 124
-0.227956 0.074233 -0.107761 136 100 118
-0.267846 0.057051 -0.234837 134 100 120
0.067320 0.041013 0.155422 132 100 122
-0.073004 0.036305 -0.168617 132 100 122
-0.010290 0.020051 0.168033 130 100 124
-0.150017 0.003822 -0.112413 127 100 127
0.191091 0.074949 0.179752 137 100 117
0.153410 0.081185 -0.259270 137 100 117
0.213353 -0.002800 0.152646 127 100 127
-0.123659 0.016852 -0.234342 129 100 125
-0.520620 -0.113596 -0.144477 113 100 141
-0.397455 -0.336252 0.191135 84 100 170
-0.143419 0.010788 0.175059 128 100 126
-0.220268 0.016273 0.050862 129 100 125
0.209344 0.033008 0.002394 131 100 123
-0.022024 0.119448 -0.261602 142 100 112
-0.256991 0.198110 -0.099902 152 100 102
0.337857 -0.382914 -0.052156 78 100 176
0.074961 0.598956 0.326114 203 100 51
0.085632 0.042123 0.258816 132 100 122
-0.123106 0.027952 -0.159137 131 100 123
-0.220670 0.041025 0.172087 132 100 122
-0.184158 0.062206 0.093398 135 100 119
-0.096948 0.087174 -0.088537 138 100 116
0.182199 0.000946 0.186254 127 100 127
-0.035017 -0.020017 -0.158787 124 100 130
-0.183619 0.001678 0.020400 127 100 127
-0.052090 0.036885 -0.203624 132 100 122
0.194559 -0.004924 -0.018432 126 100 128
0.261924 0.052226 0.135677 134 100 120
0.028057 0.019706 -0.076182 130 100 124
-0.180498 -0.035846 0.145563 122 100 132
-0.412360 -0.707925 0.214695 37 100 217
-0.230615 0.014577 -0.063456 129 100 125
0.119828 -0.004975 -0.109432 126 100 128
-0.038797 0.056291 -0.282563 134 100 120
-0.223133 0.037066 0.018836 132 100 122
-0.252382 -0.036082 -0.114363 122 100 132
0.165343 0.047534 -0.039439 133 100 121
-0.233964 0.033451 -0.023674 131 100 123
-0.202019 -0.023358 0.149067 124 100 130
0.160354 0.035302 0.233409 132 100 122
0.103665 0.031522 0.119164 131 100 123
-0.006942 0.094433 -0.311948 139 100 115
0.178460 0.031445 -0.018053 131 100 123
-0.119511 -0.050051 0.153167 121 100 133
-0.125451 0.020164 -0.228163 130 100 124
0.265189 -0.053435 0.024900 120 100 134
-0.251372 0.030514 0.140870 131 100 123
0.187753 0.050061 0.248768 133 100 121
0.126844 0.052596 -0.128570 134 100 120
0.095258 -0.004122 0.305834 126 100 128
-0.020604 0.074311 -0.133470 136 100 118
-0.224301 -0.031940 0.246895 123 100 131
0.097023 0.065756 -0.187297 135 100 119
-0.095988 0.034740 -0.186470 131 100 123
-0.164619 0.042167 -0.173538 132 100 122
0.202884 -0.039143 -0.071594 122 100 132
0.238480 0.063923 -0.003123 135 100 119
-0.125094 0.026901 0.228079 130 100 124
-0.155445 -0.009886 -0.146987 126 100 128
0.146457 0.081271 -0.151151 137 100 117
-0.140600 0.031519 -0.060215 131 100 123
0.023827 0.025141 0.083924 130 100 124
-0.031953 -0.019337 -0.282913 125 100 129
0.142309 0.089633 -0.087840 138 100 116
-0.104289 0.103322 -0.143897 140 100 114
0.226780 0.050187 0.088558 133 100 121
0.029215 0.042765 -0.227672 132 100 122
0.053429 0.079946 0.244671 137 100 117
0.010519 0.098721 0.137075 140 100 114
0.143583 0.040277 -0.013462 132 100 122
-0.010911 0.031447 0.021915 131 100 123
-0.104774 0.010730 -0.012302 128 100 126
0.173218 0.583378 -0.229407 201 100 53
0.097177 -0.022950 0.027615 124 100 130
-0.064667 0.018806 0.185328 129 100 125
-0.147953 0.034714 -0.168239 131 100 123
-0.407918 -0.272654 -0.061766 92 100 162
-0.135775 -0.052025 -0.166061 120 100 134
0.074280 0.022244 0.150478 130 100 124
0.209978 0.075649 -0.058116 137 100 117
-0.183240 -0.017259 -0.085373 125 100 129
0.191126 0.024024 -0.164860 130 100 124
0.144617 -0.017405 -0.245640 125 100 129
0.077547 0.005264 0.169131 128 100 126
0.133447 -0.000839 0.231811 127 100 127
-0.124124 -0.014172 0.057387 125 100 129
0.327217 -0.685153 -0.391213 40 100 214
0.046717 0.062656 0.048297 135 100 119
-0.063146 0.029934 -0.120001 131 100 123
0.043482 0.009054 -0.006620 128 100 126
0.070565 0.077732 0.160352 137 100 117
-0.167851 -0.003476 0.017524 127 100 127
-0.155571 0.087224 -0.014328 138 100 116
0.205797 0.035582 -0.086034 132 100 122
-0.013336 0.066912 0.052996 136 100 118
0.121476 0.073429 0.099595 136 100 118
-0.063153 0.027558 -0.188702 131 100 123
0.179700 0.073652 -0.031245 136 100 118
-0.048012 0.029038 -0.212020 131 100 123
0.076727 0.029616 -0.065172 131 100 123
0.079431 0.033980 0.149446 131 100 123
0.104838 0.087136 -0.104791 138 100 116
-0.021764 0.046582 0.342118 133 100 121
0.085902 -0.012536 0.205525 125 100 129
0.097840 0.099018 -0.089459 140 100 114
-0.051428 0.050981 0.160667 134 100 120
0.099853 0.063494 0.118464 135 100 119
-0.136917 0.014713 -0.047203 129 100 125
0.160192 -0.021801 0.247874 124 100 130
0.215751 0.051925 -0.099185 134 100 120
0.184817 -0.005780 -0.030939 126 100 128
0.152063 0.016987 -0.081045 129 100 125
0.000782 0.004059 0.235205 128 100 126
-0.155118 -0.022747 0.155780 124 100 130
0.088908 0.050422 -0.183545 133 100 121
-0.131184 0.033327 0.181675 131 100 123
-0.163456 0.053733 -0.035788 134 100 120
-0.003187 -0.026963 -0.080890 124 100 130
-0.068235 -0.007428 0.089936 126 100 128
0.175296 0.064926 -0.030933 135 100 119
0.101571 -0.018825 0.201042 125 100 129
-0.168867 -0.016115 0.095705 125 100 129
0.156285 -0.001178 0.211232 127 100 127
0.280727 0.122130 -0.073139 143 100 111
0.050997 0.061424 0.018704 135 100 119
0.106321 -0.550622 0.493634 57 100 197
0.105758 0.015675 -0.247995 129 100 125
-0.116685 0.016715 -0.028390 129 100 125
0.169824 0.034733 -0.220325 131 100 123
-0.141551 -0.009457 0.108542 126 100 128
0.180697 -0.009565 -0.057748 126 100 128
-0.290469 -0.319662 -0.299557 86 100 168
0.164859 0.036947 -0.010081 132 100 122
-0.254118 -0.008737 -0.071485 126 100 128
-0.217756 -0.001421 0.032655 127 100 127
-0.213363 0.102154 0.209335 140 100 114
0.087261 -0.003053 0.147960 127 100 127
0.000201 0.012057 0.164452 129 100 125
-0.170562 0.034700 -0.087372 131 100 123
-0.164832 0.028904 -0.097946 131 100 123
-0.171581 0.077209 0.123988 137 100 117
-0.151114 -0.004485 0.024683 126 100 128
0.034412 0.073619 0.189695 136 100 118
0.016616 0.051881 -0.186033 134 100 120
0.053969 -0.019636 -0.288794 124 100 130
-0.026873 0.064256 -0.194172 135 100 119
-0.124707 -0.008399 -0.117082 126 100 128
-0.155329 -0.008394 -0.025837 126 100 128
-0.257894 0.005683 -0.016608 128 100 126
-0.219988 0.266448 -0.351776 161 100 93
-0.042312 0.031174 0.244753 131 100 123
0.039104 0.028882 0.186664 131 100 123
-0.103391 0.033048 -0.122215 131 100 123
-0.166368 0.074399 -0.063623 136 100 118
-0.081914 0.042146 0.114090 132 100 122
-0.322615 0.493845 -0.086525 190 100 64
-0.180144 0.051379 0.073350 134 100 120
-0.173306 0.047148 0.014446 133 100 121
0.004372 0.005866 -0.065530 128 100 126
-0.115453 0.055089 0.053316 134 100 120
0.153844 0.041952 -0.195684 132 100 122
0.127451 0.028779 -0.071677 131 100 123
